6.419;6.410;6.402;6.395;6.387;6.380;6.373;6.366;6.359;6.352;6.344;6.337;6.330;6.322;6.315;6.308;6.300;6.293;6.286;6.279;6.272;6.265;6.257;6.250;6.243;6.236;6.228;6.221;6.214;6.208;6.202;6.195;6.189;6.181;6.174;6.166;6.159;6.152;6.145;6.138;6.131;6.124;6.118;6.111;6.105;6.098;6.092;6.085;6.077;6.070;6.063;6.056;6.050;6.043;6.036;6.030;6.023;6.016;6.009;6.003;5.996;5.990;5.983;5.977;5.970;5.964;5.958;5.952;5.946;5.940;5.934;5.928;5.921;5.915;5.908;5.902;5.896;5.889;5.883;5.877;5.871;5.864;5.858;5.852;5.846;5.840;5.834;5.829;5.823;5.817;5.811;5.806;5.800;5.795;5.789;5.784;5.778;5.773;5.768;5.762;5.757;5.752;5.746;5.741;5.736;5.731;5.726;5.721;5.716;5.711;5.706;5.701;5.696;5.691;5.687;5.682;5.677;5.672;5.668;5.663;5.658;5.654;5.649;5.644;5.640;5.635;5.630;5.626;5.621;5.617;5.612;5.607;5.603;5.599;5.594;5.590;5.585;5.581;5.577;5.573;5.569;5.565;5.561;5.557;5.553;5.550;5.546;5.542;5.538;2.689;2.676;2.670;2.670;2.671;2.672;2.673;2.672;2.671;2.670;2.669;2.669;5.494;2.639;2.639;5.483;5.479;5.475;5.472;5.469;5.467;5.463;5.459;5.456;5.453;5.450;5.446;5.443;5.439;5.436;5.433;5.430;5.427;5.424;5.422;5.419;5.417;5.415;5.412;5.410;5.408;5.406;5.404;5.401;5.399;5.396;5.393;5.390;5.387;5.384;5.382;5.380;5.378;5.376;5.373;5.371;5.369;5.368;5.366;5.364;5.362;5.360;5.358;5.356;2.783;2.757;2.740;2.726;2.719;2.712;2.705;2.694;2.683;2.683;2.680;2.676;2.664;2.652;2.649;2.648;2.644;2.641;2.640;2.639;2.639;2.638;2.638;2.639;2.639;2.640;2.640;2.641;2.642;2.644;2.646;2.648;2.650;2.653;2.656;2.658;2.659;2.664;2.667;2.673;2.684;2.688;2.695;2.702;2.709;2.717;2.725;2.733;2.749;5.327;5.328;5.328;5.329;5.330;5.331;5.332;5.333;5.334;5.335;5.335;5.336;5.337;5.337;5.338;5.339;5.339;5.340;5.341;5.342;5.343;5.344;5.345;5.347;5.348;5.350;5.351;5.353;5.355;5.357;5.359;5.361;5.363;5.365;5.367;5.369;5.372;5.374;5.376;5.379;5.381;5.384;5.386;5.388;5.391;5.393;5.395;5.397;5.400;5.402;5.405;2.733;2.730;2.735;2.855;5.417;2.844;2.835;2.840;2.784;2.782;2.788;5.437;5.439;5.442;5.444;5.447;5.450;5.453;5.455;5.458;5.461;5.464;5.467;5.470;5.474;5.477;5.480;5.484;5.487;5.490;5.494;5.497;5.501;5.504;5.507;5.511;5.514;5.517;5.521;5.524;5.528;5.532;5.535;5.539;5.543;5.547;5.551;5.555;5.560;5.564;5.568;5.572;5.576;5.581;5.585;5.589;5.593;5.597;5.602;5.606;5.610;5.615;5.619;5.623;5.628;5.632;5.636;5.641;5.645;5.650;5.654;5.659;5.663;5.668;5.673;5.678;5.683;5.688;5.693;5.698;5.703;5.708;5.712;5.717;5.722;5.727;5.731;5.736;5.741;5.746;5.752;5.757;5.762;5.768;5.773;5.778;5.784;5.789;5.795;5.801;5.807;5.812;5.818;5.824;5.830;5.836;5.842;5.848;5.854;5.860;5.867;5.873;5.879;5.885;5.891;5.897;5.903;5.909;5.915;5.922;5.928;5.934;5.940;5.946;5.953;5.958;5.964;5.970;5.976;5.982;5.988;5.993;5.999;6.001;6.013;6.020;6.028;6.035;6.043;6.050;6.057;6.064;6.071;6.077;6.084;6.091;6.098;6.105;6.112;6.120;6.127;6.134;6.141;6.148;6.156;6.163;6.170;6.178;6.186;6.193;6.201;6.209;6.217;6.225;6.232;6.231;6.228;6.216;6.202;6.184;6.164;6.142;6.123;6.105;6.086;6.068;6.050;6.034;6.016;5.996;5.976;5.957;5.938;5.921
6.372;6.364;6.357;6.349;6.342;6.335;6.328;6.321;6.314;6.306;6.299;6.291;6.284;6.277;6.269;6.262;6.255;6.248;6.241;6.233;6.226;6.219;6.212;6.204;6.197;6.190;6.183;6.176;6.170;6.163;6.157;6.150;6.143;6.135;6.128;6.120;6.113;6.106;6.099;6.092;6.086;6.080;6.073;6.067;6.060;6.054;6.047;6.040;6.033;6.026;6.020;6.013;6.006;5.999;5.993;5.986;5.979;5.973;5.967;5.960;5.953;5.947;5.940;5.934;5.927;5.921;5.915;5.909;5.903;5.897;5.891;5.885;5.879;5.872;5.866;5.859;5.853;5.847;5.840;5.834;5.828;5.822;5.816;5.810;5.804;5.798;5.792;5.787;5.781;5.775;5.770;5.764;5.759;5.753;5.748;5.742;5.737;5.732;5.726;5.721;5.716;5.710;5.705;5.700;5.695;5.690;5.685;5.680;5.675;5.670;5.665;5.660;5.656;5.651;5.646;5.641;5.636;5.632;5.627;5.622;5.617;5.612;5.607;5.603;5.598;5.593;5.589;5.584;5.580;5.575;5.571;5.566;5.562;5.557;5.553;5.549;5.544;5.540;5.536;5.532;5.528;5.524;5.521;5.517;5.513;5.509;5.505;5.502;5.498;2.687;2.674;2.669;2.671;2.679;5.479;5.476;5.472;5.469;5.465;5.462;5.458;5.454;2.638;2.637;2.641;5.440;5.436;5.434;5.431;5.428;5.425;5.422;5.418;5.415;5.411;5.408;5.405;5.402;5.400;5.397;5.394;5.391;5.389;5.386;5.383;5.381;5.378;5.376;5.373;5.371;5.368;5.366;5.363;5.360;5.357;5.354;5.351;5.348;5.346;5.343;5.340;5.338;5.336;5.334;5.332;5.330;5.328;5.326;5.324;5.323;5.321;5.319;5.317;2.769;2.751;2.737;2.726;2.718;2.711;2.700;2.693;2.686;2.682;2.680;2.676;2.673;2.664;2.659;2.653;2.648;2.646;2.646;2.645;2.643;2.643;2.643;2.643;2.643;2.644;2.644;2.645;2.645;2.647;2.648;2.651;2.653;2.656;2.660;2.662;2.663;2.664;2.663;2.656;2.682;2.690;2.697;2.703;2.709;2.717;2.724;2.734;2.754;5.289;5.289;5.290;5.290;5.291;5.292;5.293;5.294;5.296;5.296;5.297;5.298;5.298;5.299;5.299;5.300;5.301;5.302;5.303;5.303;5.304;5.305;5.306;5.308;5.309;5.311;5.313;5.315;5.317;5.318;5.320;5.322;5.324;5.327;5.329;5.331;5.333;5.335;5.337;5.339;5.342;5.344;5.346;5.348;5.351;5.353;5.356;5.358;5.360;5.363;5.365;5.367;2.729;2.731;2.857;5.378;2.838;2.834;2.820;2.780;2.781;5.394;5.397;5.399;5.402;5.404;5.407;5.410;5.413;5.416;5.419;5.422;5.424;5.427;5.430;5.433;5.436;5.440;5.443;5.446;5.450;5.453;5.457;5.460;5.464;5.467;5.470;5.474;5.477;5.480;5.484;5.488;5.491;5.495;5.499;5.503;5.507;5.511;5.515;5.519;5.523;5.527;5.532;5.536;5.540;5.544;5.548;5.552;5.557;5.561;5.565;5.570;5.574;5.578;5.583;5.588;5.592;5.597;5.601;5.606;5.610;5.615;5.620;5.624;5.629;5.634;5.639;5.644;5.648;5.653;5.658;5.663;5.668;5.672;5.677;5.682;5.687;5.691;5.696;5.701;5.706;5.711;5.716;5.721;5.726;5.731;5.737;5.743;5.748;5.754;5.760;5.766;5.772;5.778;5.784;5.790;5.796;5.802;5.808;5.814;5.820;5.826;5.833;5.838;5.844;5.850;5.856;5.862;5.868;5.875;5.881;5.887;5.893;5.899;5.906;5.912;5.918;5.924;5.930;5.935;5.941;5.947;5.953;5.957;5.956;5.957;5.975;5.987;5.994;6.002;6.009;6.015;6.022;6.029;6.035;6.042;6.049;6.056;6.062;6.069;6.076;6.084;6.091;6.098;6.105;6.112;6.119;6.127;6.134;6.141;6.148;6.156;6.164;6.171;6.179;6.187;6.195;6.199;6.200;6.192;6.178;6.163;6.141;6.122;6.103;6.085;6.066;6.047;6.031;6.015;5.998;5.977;5.957;5.938;5.921
6.328;6.320;6.313;6.305;6.298;6.290;6.283;6.276;6.269;6.261;6.254;6.246;6.239;6.232;6.224;6.217;6.210;6.202;6.195;6.188;6.180;6.173;6.166;6.159;6.152;6.145;6.138;6.131;6.124;6.117;6.112;6.105;6.097;6.090;6.082;6.075;6.068;6.062;6.055;6.049;6.042;6.036;6.029;6.022;6.016;6.009;6.002;5.995;5.988;5.981;5.975;5.968;5.961;5.955;5.949;5.942;5.936;5.930;5.923;5.917;5.911;5.905;5.898;5.892;5.885;5.879;5.873;5.867;5.861;5.855;5.849;5.843;5.837;5.830;5.824;5.818;5.812;5.806;5.799;5.793;5.787;5.781;5.775;5.769;5.763;5.757;5.751;5.745;5.740;5.734;5.729;5.723;5.718;5.712;5.707;5.701;5.696;5.690;5.685;5.680;5.674;5.669;5.664;5.659;5.654;5.649;5.644;5.639;5.634;5.630;5.625;5.620;5.615;5.610;5.605;5.600;5.595;5.591;5.586;5.581;5.576;5.571;5.566;5.562;5.557;5.552;5.548;5.543;5.539;5.534;5.530;5.525;5.521;5.517;5.513;5.508;5.504;5.500;5.496;5.492;5.488;5.484;5.481;5.477;5.473;5.470;5.467;5.464;5.461;2.686;2.672;2.669;2.670;5.443;5.440;5.436;5.433;5.429;5.426;5.422;5.419;5.415;2.637;2.635;2.639;5.401;5.398;5.396;5.393;5.390;5.388;5.385;5.380;5.375;5.372;5.369;5.367;5.364;5.361;5.359;5.356;5.354;5.351;5.349;5.346;5.343;5.340;5.337;5.335;5.332;5.329;5.326;5.324;5.321;5.318;5.316;5.313;5.310;5.308;5.305;5.302;5.300;5.298;5.296;5.293;5.292;5.290;5.288;5.286;5.284;5.282;5.281;5.279;2.765;2.745;2.734;2.726;2.719;2.712;2.699;2.696;2.687;2.682;2.680;2.677;2.675;2.665;2.662;2.660;2.660;2.647;2.647;2.649;2.649;2.647;2.645;2.644;2.645;2.645;2.647;2.648;2.649;2.651;2.653;2.654;2.656;2.659;2.661;2.664;2.667;2.668;2.666;2.656;2.681;2.686;2.698;2.703;2.709;2.715;2.724;2.737;2.755;5.252;5.252;5.253;5.254;5.254;5.255;5.256;5.257;5.258;5.259;5.260;5.260;5.261;5.261;5.262;5.263;5.264;5.264;5.265;5.266;5.267;5.268;5.270;5.271;5.273;5.274;5.276;5.278;5.279;5.281;5.283;5.285;5.287;5.288;5.290;5.292;5.294;5.296;5.298;5.300;5.302;5.305;5.307;5.309;5.312;5.314;5.316;5.319;5.321;5.324;5.326;2.851;2.849;2.851;5.336;5.338;2.834;2.834;2.809;2.777;2.782;5.354;5.357;5.360;5.362;5.365;5.368;5.370;5.374;5.377;5.380;5.383;5.385;5.388;5.391;5.394;5.397;5.400;5.403;5.406;5.410;5.413;5.416;5.420;5.423;5.427;5.431;5.434;5.437;5.441;5.444;5.448;5.452;5.456;5.460;5.463;5.467;5.471;5.475;5.479;5.483;5.487;5.491;5.496;5.500;5.504;5.508;5.512;5.517;5.521;5.525;5.530;5.534;5.539;5.543;5.548;5.552;5.557;5.561;5.566;5.570;5.575;5.580;5.584;5.589;5.594;5.598;5.603;5.608;5.612;5.617;5.622;5.628;5.633;5.638;5.643;5.648;5.653;5.658;5.664;5.669;5.673;5.678;5.683;5.688;5.693;5.698;5.703;5.709;5.714;5.720;5.726;5.732;5.738;5.744;5.750;5.756;5.762;5.768;5.774;5.780;5.787;5.793;5.799;5.804;5.810;5.816;5.822;5.828;5.834;5.840;5.846;5.853;5.859;5.865;5.872;5.878;5.884;5.890;5.896;5.902;5.908;5.914;5.920;5.924;5.925;5.926;5.938;5.952;5.961;5.967;5.974;5.981;5.987;5.994;6.001;6.008;6.014;6.021;6.028;6.035;6.042;6.048;6.055;6.062;6.069;6.077;6.084;6.091;6.098;6.105;6.113;6.120;6.127;6.135;6.142;6.151;6.159;6.166;6.167;6.163;6.153;6.136;6.121;6.102;6.084;6.065;6.045;6.028;6.012;5.995;5.976;5.957;5.938;5.921
6.284;6.276;6.269;6.261;6.254;6.246;6.239;6.231;6.224;6.216;6.209;6.201;6.194;6.186;6.179;6.172;6.164;6.157;6.150;6.143;6.136;6.129;6.122;6.115;6.108;6.101;6.094;6.087;6.080;6.073;6.066;6.059;6.052;6.045;6.038;6.031;6.025;6.018;6.011;6.005;5.998;5.991;5.985;5.978;5.971;5.964;5.957;5.951;5.944;5.937;5.931;5.925;5.918;5.912;5.906;5.899;5.893;5.887;5.881;5.875;5.868;5.862;5.856;5.850;5.844;5.837;5.831;5.825;5.819;5.813;5.807;5.800;5.794;5.788;5.781;5.775;5.769;5.763;5.757;5.751;5.745;5.739;5.733;5.727;5.721;5.715;5.709;5.704;5.698;5.693;5.687;5.682;5.676;5.671;5.665;5.660;5.654;5.649;5.644;5.638;5.633;5.628;5.623;5.618;5.613;5.608;5.603;5.598;5.594;5.589;5.584;5.579;5.574;5.569;5.565;5.560;5.555;5.550;5.545;5.540;5.535;5.531;5.526;5.521;5.517;5.512;5.507;5.503;5.499;5.494;5.490;5.486;5.481;5.477;5.473;5.469;5.465;5.461;5.457;5.453;5.449;5.446;5.443;5.439;5.436;5.433;5.430;5.426;2.703;2.699;2.671;2.669;2.671;5.404;5.401;5.397;5.394;5.390;5.387;5.383;5.380;5.376;2.639;2.636;2.638;5.363;5.359;5.356;5.353;5.350;5.347;5.343;5.340;5.337;5.334;5.331;5.329;5.326;5.324;5.321;5.318;5.316;5.313;5.310;5.306;5.304;5.301;5.298;5.296;5.293;5.291;5.288;5.285;5.282;5.280;5.277;5.274;5.272;5.269;5.267;5.264;5.262;5.259;5.257;5.255;5.254;5.252;5.250;5.248;5.246;5.245;5.243;5.241;2.765;2.742;2.730;2.724;2.718;2.713;2.707;2.700;2.693;2.682;2.680;2.680;2.677;2.665;2.662;2.661;2.661;2.662;2.647;2.649;2.650;2.650;2.651;2.652;2.651;2.650;2.649;2.649;2.650;2.651;2.653;2.655;2.657;2.659;2.662;2.665;2.668;2.669;2.671;2.683;2.686;2.692;2.697;2.701;2.707;2.715;2.726;2.738;2.757;5.216;5.216;5.217;5.218;5.218;5.219;5.220;5.220;5.221;5.222;5.223;5.223;5.224;5.225;5.225;5.226;5.227;5.228;5.229;5.230;5.231;5.232;5.234;5.235;5.237;5.238;5.240;5.241;5.242;5.244;5.245;5.247;5.248;5.250;5.252;5.253;5.255;5.257;5.259;5.262;5.264;5.266;5.268;5.270;5.273;5.275;5.278;5.280;5.283;5.285;5.288;2.848;5.292;5.295;5.297;5.300;2.830;2.773;2.773;2.776;5.314;5.317;5.320;5.323;5.325;5.328;5.331;5.334;5.336;5.338;5.341;5.344;5.347;5.350;5.353;5.355;5.357;5.360;5.365;5.367;5.372;5.375;5.379;5.382;5.385;5.389;5.392;5.396;5.399;5.402;5.406;5.410;5.414;5.417;5.421;5.425;5.429;5.433;5.437;5.441;5.445;5.449;5.453;5.457;5.461;5.466;5.470;5.474;5.478;5.483;5.487;5.491;5.496;5.500;5.504;5.508;5.513;5.517;5.522;5.526;5.531;5.535;5.540;5.544;5.549;5.553;5.558;5.563;5.567;5.572;5.577;5.582;5.587;5.592;5.597;5.603;5.608;5.613;5.618;5.623;5.628;5.633;5.639;5.644;5.649;5.655;5.660;5.666;5.671;5.676;5.681;5.686;5.692;5.698;5.704;5.710;5.716;5.722;5.729;5.735;5.741;5.747;5.753;5.759;5.765;5.771;5.777;5.783;5.789;5.795;5.801;5.807;5.813;5.819;5.825;5.831;5.838;5.844;5.850;5.857;5.863;5.870;5.876;5.883;5.890;5.896;5.902;5.909;5.914;5.922;5.929;5.935;5.942;5.948;5.955;5.961;5.968;5.975;5.981;5.988;5.995;6.001;6.008;6.015;6.022;6.028;6.035;6.042;6.050;6.057;6.064;6.071;6.078;6.086;6.093;6.100;6.107;6.114;6.122;6.130;6.132;6.131;6.128;6.114;6.099;6.083;6.063;6.044;6.025;6.008;5.991;5.973;5.954;5.938;5.923
6.239;6.232;6.224;6.217;6.209;6.202;6.194;6.187;6.179;6.172;6.164;6.157;6.149;6.142;6.134;6.127;6.120;6.113;6.106;6.099;6.092;6.086;6.079;6.072;6.065;6.058;6.051;6.044;6.036;6.029;6.022;6.015;6.008;6.001;5.994;5.988;5.981;5.974;5.968;5.961;5.954;5.947;5.941;5.934;5.927;5.921;5.914;5.908;5.901;5.895;5.888;5.882;5.876;5.870;5.863;5.857;5.851;5.845;5.839;5.832;5.826;5.820;5.814;5.808;5.802;5.795;5.789;5.783;5.777;5.771;5.765;5.758;5.752;5.746;5.739;5.733;5.727;5.721;5.715;5.709;5.703;5.697;5.691;5.685;5.679;5.674;5.668;5.663;5.657;5.652;5.646;5.641;5.635;5.630;5.624;5.619;5.614;5.609;5.604;5.598;5.593;5.588;5.583;5.578;5.573;5.568;5.563;5.559;5.554;5.549;5.544;5.539;5.534;5.529;5.524;5.519;5.514;5.509;5.505;5.500;5.495;5.490;5.486;5.481;5.477;5.472;5.468;5.463;5.459;5.455;5.451;5.446;5.442;5.438;5.434;5.430;5.426;5.422;5.418;5.415;5.411;5.408;5.404;5.401;5.397;5.394;5.390;5.387;2.701;2.699;2.669;2.667;2.671;2.750;5.362;5.359;5.355;5.352;5.349;5.345;5.342;5.338;2.640;2.637;2.640;5.324;5.321;5.318;5.314;5.311;5.308;5.305;5.302;5.299;5.297;5.294;5.291;5.289;5.286;5.284;5.281;5.278;5.274;5.271;5.268;5.265;5.263;5.260;5.258;5.255;5.253;5.250;5.247;5.244;5.242;5.239;5.237;5.234;5.232;5.230;5.227;5.225;5.223;5.221;5.220;5.218;5.216;5.214;5.212;5.210;5.208;5.206;5.204;2.766;2.742;2.729;2.721;2.716;2.712;2.708;2.703;2.697;2.692;2.686;2.683;2.680;2.666;2.663;2.662;2.663;2.663;2.650;2.648;2.650;2.651;2.651;2.652;2.653;2.654;2.656;2.657;2.657;2.657;2.657;2.657;2.658;2.661;2.664;2.667;2.671;2.671;2.681;2.683;2.687;2.690;2.695;2.700;2.708;2.717;2.727;2.740;2.757;5.179;5.180;5.180;5.181;5.181;5.182;5.183;5.183;5.184;5.185;5.186;5.187;5.187;5.188;5.189;5.190;5.191;5.192;5.193;5.194;5.195;5.196;5.197;5.198;5.199;5.201;5.202;5.203;5.205;5.206;5.208;5.209;5.211;5.212;5.214;5.216;5.217;5.219;5.221;5.224;5.226;5.228;5.230;5.232;5.235;5.237;5.240;5.242;5.244;5.247;5.250;5.253;5.256;5.259;2.827;2.826;2.777;2.774;2.803;5.277;5.280;5.283;5.285;5.288;5.291;5.294;5.296;5.299;5.301;5.303;5.306;5.308;5.310;5.312;5.312;5.314;5.319;5.324;5.327;5.330;5.333;5.337;5.341;5.345;5.349;5.353;5.357;5.360;5.363;5.366;5.369;5.372;5.376;5.380;5.384;5.388;5.392;5.396;5.400;5.404;5.408;5.412;5.417;5.421;5.425;5.429;5.433;5.437;5.442;5.446;5.450;5.455;5.459;5.464;5.468;5.472;5.476;5.481;5.485;5.489;5.494;5.498;5.502;5.507;5.511;5.515;5.520;5.524;5.528;5.533;5.538;5.543;5.548;5.553;5.558;5.563;5.568;5.573;5.578;5.583;5.588;5.593;5.598;5.604;5.609;5.614;5.620;5.625;5.631;5.636;5.642;5.647;5.653;5.658;5.664;5.670;5.676;5.682;5.687;5.693;5.699;5.705;5.711;5.718;5.724;5.730;5.736;5.742;5.748;5.754;5.760;5.766;5.772;5.778;5.785;5.791;5.797;5.804;5.810;5.816;5.823;5.829;5.835;5.842;5.848;5.855;5.861;5.868;5.875;5.881;5.888;5.895;5.901;5.908;5.915;5.921;5.928;5.935;5.941;5.948;5.955;5.961;5.968;5.975;5.982;5.988;5.995;6.002;6.009;6.016;6.023;6.030;6.037;6.045;6.052;6.059;6.066;6.073;6.080;6.087;6.095;6.103;6.102;6.101;6.090;6.077;6.064;6.044;6.025;6.006;5.987;5.970;5.951;5.936;5.921
6.195;6.188;6.180;6.173;6.165;6.157;6.150;6.143;6.135;6.128;6.120;6.113;6.106;6.099;6.091;6.084;6.077;6.070;6.063;6.057;6.050;6.043;6.036;6.029;6.022;6.015;6.008;6.000;5.993;5.986;5.979;5.972;5.965;5.958;5.952;5.945;5.938;5.931;5.925;5.918;5.911;5.905;5.898;5.891;5.885;5.878;5.872;5.866;5.859;5.853;5.847;5.841;5.834;5.828;5.822;5.816;5.810;5.803;5.797;5.791;5.785;5.778;5.772;5.766;5.760;5.754;5.748;5.742;5.736;5.729;5.723;5.717;5.710;5.704;5.698;5.692;5.686;5.680;5.673;5.668;5.662;5.656;5.650;5.644;5.639;5.633;5.628;5.622;5.617;5.611;5.606;5.600;5.595;5.590;5.585;5.579;5.574;5.569;5.564;5.559;5.554;5.549;5.544;5.539;5.534;5.529;5.524;5.519;5.514;5.509;5.504;5.499;5.494;5.489;5.484;5.479;5.474;5.469;5.464;5.459;5.455;5.450;5.446;5.442;5.437;5.433;5.429;5.424;5.420;5.416;5.412;5.407;5.403;5.399;5.395;5.392;5.388;5.384;5.381;5.377;5.373;5.370;5.366;5.363;5.359;5.355;5.351;5.348;2.700;2.699;2.669;2.666;2.668;2.742;5.323;5.320;5.317;5.314;5.310;5.307;5.303;5.300;2.641;2.637;2.641;5.287;5.283;5.280;5.277;5.273;5.270;5.267;5.264;5.262;5.259;5.256;5.253;5.250;5.247;5.244;5.241;5.238;5.235;5.233;5.230;5.227;5.225;5.222;5.220;5.218;5.215;5.213;5.210;5.208;5.206;5.203;5.201;5.198;5.196;5.194;5.192;5.190;5.188;5.186;5.184;5.182;5.181;5.179;5.177;5.175;5.173;5.171;5.170;2.766;2.742;2.729;2.722;2.715;2.709;2.705;2.701;2.698;2.694;2.690;2.687;2.683;2.680;2.663;2.664;2.664;2.665;2.665;2.649;2.648;2.651;2.653;2.653;2.653;2.654;2.655;2.657;2.658;2.660;2.662;2.663;2.664;2.666;2.668;2.671;2.673;2.675;2.678;2.681;2.687;2.692;2.696;2.702;2.709;2.719;2.729;2.740;2.755;2.779;5.143;5.143;5.144;5.144;5.145;5.145;5.146;5.147;5.148;5.150;5.151;5.151;5.152;5.153;5.154;5.155;5.155;5.156;5.157;5.158;5.159;5.160;5.161;5.162;5.164;5.165;5.166;5.168;5.169;5.170;5.172;5.174;5.175;5.177;5.179;5.180;5.182;5.184;5.186;5.188;5.190;5.193;5.195;5.197;5.199;5.201;5.204;5.206;5.210;5.213;5.216;5.220;5.224;2.826;2.830;2.799;2.803;5.238;5.240;5.243;5.245;5.248;5.251;5.253;5.256;5.260;5.262;5.265;5.267;5.270;5.272;5.275;5.277;5.280;5.282;5.284;5.288;5.291;5.293;5.296;5.299;5.303;5.307;5.311;5.316;5.320;5.323;5.326;5.329;5.332;5.335;5.339;5.342;5.346;5.350;5.355;5.359;5.363;5.367;5.371;5.376;5.380;5.384;5.389;5.393;5.397;5.401;5.405;5.410;5.414;5.418;5.423;5.427;5.432;5.436;5.441;5.445;5.449;5.453;5.458;5.462;5.466;5.470;5.475;5.479;5.484;5.488;5.493;5.497;5.501;5.506;5.510;5.514;5.519;5.524;5.529;5.534;5.539;5.544;5.549;5.554;5.559;5.564;5.569;5.575;5.580;5.585;5.590;5.596;5.601;5.607;5.612;5.618;5.624;5.629;5.635;5.641;5.647;5.653;5.659;5.665;5.671;5.677;5.683;5.689;5.695;5.701;5.707;5.713;5.719;5.725;5.731;5.737;5.743;5.750;5.756;5.762;5.769;5.775;5.781;5.787;5.794;5.800;5.807;5.813;5.820;5.826;5.833;5.839;5.846;5.853;5.859;5.866;5.873;5.879;5.886;5.893;5.900;5.907;5.913;5.920;5.927;5.934;5.941;5.948;5.955;5.962;5.969;5.976;5.983;5.990;5.997;6.004;6.011;6.018;6.025;6.032;6.039;6.046;6.053;6.060;6.068;6.075;6.073;6.068;6.056;6.044;6.026;6.007;5.987;5.968;5.949;5.934;5.919
6.153;6.145;6.138;6.130;6.122;6.115;6.107;6.100;6.092;6.085;6.078;6.071;6.065;6.057;6.050;6.042;6.035;6.028;6.021;6.014;6.008;6.001;5.993;5.986;5.979;5.972;5.964;5.957;5.950;5.943;5.936;5.930;5.923;5.916;5.909;5.902;5.896;5.889;5.882;5.876;5.869;5.862;5.856;5.850;5.844;5.838;5.832;5.825;5.819;5.812;5.806;5.800;5.794;5.787;5.781;5.775;5.769;5.762;5.756;5.750;5.744;5.738;5.731;5.725;5.719;5.713;5.707;5.701;5.695;5.688;5.682;5.676;5.670;5.663;5.657;5.651;5.645;5.639;5.633;5.627;5.621;5.615;5.610;5.604;5.599;5.593;5.588;5.582;5.577;5.571;5.566;5.561;5.556;5.550;5.545;5.540;5.535;5.530;5.525;5.520;5.514;5.509;5.504;5.499;5.494;5.489;5.483;5.478;5.473;5.468;5.464;5.459;5.454;5.449;5.444;5.439;5.434;5.429;5.425;5.421;5.416;5.412;5.408;5.403;5.399;5.395;5.390;5.386;5.382;5.378;5.373;5.369;5.366;5.362;5.358;5.355;5.351;5.347;5.343;5.340;5.336;5.332;5.328;5.325;5.321;5.317;5.313;5.310;2.699;2.698;2.670;2.665;2.665;2.744;2.743;5.282;5.278;5.275;5.271;5.268;5.265;5.261;5.258;2.638;5.251;5.248;5.245;5.242;5.239;5.236;5.233;5.230;5.227;5.224;5.221;5.218;5.215;5.212;5.209;5.206;5.204;5.201;5.198;5.196;5.193;5.191;5.188;5.186;5.184;5.181;5.178;5.176;5.174;5.171;5.169;5.167;5.165;5.163;5.161;5.159;5.156;5.154;5.152;5.150;5.149;5.147;5.145;5.143;5.141;5.140;5.138;5.136;5.135;2.766;2.743;2.731;2.723;2.717;2.711;2.705;2.700;2.697;2.693;2.691;2.688;2.685;2.682;2.664;2.665;2.666;2.667;2.667;2.663;2.649;2.650;2.652;2.655;2.656;2.656;2.656;2.656;2.657;2.659;2.660;2.662;2.664;2.666;2.668;2.670;2.673;2.676;2.679;2.684;2.689;2.694;2.699;2.704;2.710;2.719;2.729;2.740;2.754;2.771;5.107;5.107;5.107;5.108;5.108;5.109;5.110;5.111;5.112;5.114;5.115;5.116;5.116;5.117;5.118;5.119;5.119;5.119;5.120;5.121;5.122;5.123;5.125;5.126;5.127;5.128;5.130;5.131;5.133;5.134;5.135;5.137;5.139;5.140;5.142;5.144;5.146;5.148;5.150;5.152;5.155;5.157;5.159;5.162;5.164;5.167;5.169;5.172;5.176;5.180;5.183;5.185;5.188;5.190;5.193;5.195;5.198;5.200;5.203;5.206;5.208;5.211;5.214;5.217;5.220;5.223;5.226;5.228;5.231;5.233;5.236;5.239;5.241;5.244;5.247;5.249;5.252;5.255;5.257;5.260;5.262;5.266;5.270;5.274;5.278;5.282;5.286;5.290;5.293;5.296;5.299;5.302;5.306;5.309;5.313;5.317;5.321;5.325;5.330;5.334;5.338;5.342;5.347;5.351;5.355;5.360;5.364;5.368;5.372;5.377;5.381;5.385;5.390;5.394;5.399;5.403;5.407;5.412;5.416;5.420;5.424;5.429;5.433;5.437;5.441;5.446;5.450;5.455;5.460;5.465;5.470;5.474;5.479;5.483;5.488;5.491;5.495;5.500;5.505;5.510;5.515;5.520;5.525;5.530;5.535;5.540;5.545;5.551;5.556;5.561;5.567;5.572;5.579;5.585;5.590;5.595;5.601;5.606;5.612;5.618;5.624;5.630;5.636;5.642;5.649;5.655;5.661;5.667;5.673;5.679;5.685;5.691;5.697;5.703;5.709;5.715;5.722;5.728;5.734;5.740;5.747;5.753;5.759;5.766;5.772;5.778;5.785;5.791;5.798;5.805;5.811;5.818;5.825;5.831;5.838;5.845;5.852;5.858;5.865;5.872;5.879;5.886;5.892;5.899;5.906;5.913;5.920;5.927;5.934;5.941;5.948;5.955;5.962;5.969;5.977;5.984;5.991;5.998;6.005;6.013;6.020;6.027;6.034;6.042;6.047;6.042;6.036;6.024;6.008;5.989;5.969;5.950;5.931;5.916
6.111;6.103;6.096;6.088;6.080;6.072;6.065;6.058;6.050;6.044;6.037;6.031;6.024;6.016;6.008;6.000;5.993;5.987;5.980;5.974;5.967;5.959;5.952;5.944;5.937;5.930;5.923;5.916;5.909;5.902;5.895;5.888;5.881;5.874;5.867;5.860;5.854;5.847;5.841;5.835;5.829;5.824;5.817;5.811;5.804;5.798;5.791;5.785;5.778;5.772;5.766;5.759;5.753;5.747;5.740;5.734;5.728;5.722;5.716;5.710;5.703;5.697;5.691;5.685;5.679;5.673;5.667;5.661;5.654;5.648;5.642;5.636;5.630;5.623;5.617;5.611;5.605;5.599;5.593;5.587;5.581;5.576;5.570;5.564;5.559;5.553;5.548;5.542;5.537;5.532;5.526;5.521;5.516;5.511;5.505;5.500;5.495;5.490;5.485;5.479;5.474;5.469;5.464;5.459;5.454;5.449;5.444;5.439;5.434;5.429;5.424;5.419;5.414;5.409;5.405;5.400;5.396;5.391;5.387;5.382;5.378;5.374;5.369;5.365;5.361;5.357;5.352;5.348;5.344;5.340;5.336;5.333;5.329;5.325;5.321;5.318;5.314;5.310;5.306;5.302;5.299;5.295;5.291;5.287;5.283;5.280;5.276;5.272;2.699;2.698;2.725;2.666;2.664;2.667;2.744;2.742;2.744;5.237;5.233;5.230;5.227;5.224;5.220;5.217;5.214;5.211;5.208;5.205;5.202;5.199;5.196;5.193;5.190;5.187;5.184;5.181;5.178;5.175;5.172;5.170;5.167;5.164;5.162;5.160;5.157;5.155;5.152;5.150;5.147;5.145;5.142;5.140;5.137;5.135;5.133;5.131;5.128;5.126;5.124;5.122;5.120;5.118;5.116;5.114;5.112;5.110;5.108;5.107;5.105;5.104;5.102;5.100;5.099;2.766;2.744;2.733;2.725;2.720;2.712;2.706;2.702;2.698;2.695;2.691;2.688;2.686;2.684;2.666;2.666;2.667;2.668;2.668;2.666;2.662;2.650;2.651;2.654;2.656;2.658;2.659;2.659;2.660;2.661;2.662;2.663;2.664;2.666;2.668;2.671;2.675;2.679;2.682;2.687;2.692;2.696;2.701;2.705;2.711;2.719;2.729;2.740;2.753;2.770;5.072;5.072;5.072;5.072;5.072;5.073;5.074;5.075;5.076;5.078;5.079;5.080;5.081;5.082;5.082;5.083;5.083;5.083;5.084;5.085;5.086;5.087;5.089;5.090;5.091;5.093;5.095;5.096;5.098;5.100;5.101;5.103;5.105;5.106;5.108;5.110;5.112;5.114;5.115;5.117;5.120;5.122;5.125;5.128;5.130;5.133;5.135;5.138;5.141;5.144;5.147;5.149;5.151;5.154;5.156;5.159;5.161;5.164;5.166;5.169;5.172;5.174;5.177;5.180;5.183;5.186;5.189;5.192;5.195;5.197;5.200;5.202;5.205;5.208;5.211;5.213;5.216;5.218;5.221;5.223;5.226;5.229;5.233;5.236;5.240;5.244;5.248;5.253;5.257;5.260;5.263;5.267;5.270;5.274;5.277;5.281;5.285;5.289;5.293;5.296;5.300;5.305;5.309;5.313;5.318;5.322;5.326;5.331;5.335;5.339;5.343;5.348;5.352;5.356;5.361;5.365;5.369;5.374;5.378;5.382;5.387;5.391;5.396;5.400;5.404;5.408;5.413;5.418;5.423;5.427;5.432;5.438;5.443;5.448;5.452;5.456;5.459;5.462;5.466;5.471;5.476;5.481;5.486;5.491;5.496;5.501;5.506;5.511;5.516;5.522;5.527;5.533;5.540;5.547;5.552;5.557;5.562;5.567;5.573;5.578;5.584;5.590;5.597;5.604;5.610;5.617;5.623;5.628;5.634;5.639;5.645;5.652;5.658;5.664;5.670;5.676;5.682;5.688;5.694;5.700;5.706;5.713;5.719;5.725;5.731;5.738;5.744;5.751;5.757;5.764;5.770;5.777;5.784;5.790;5.797;5.804;5.811;5.817;5.824;5.831;5.838;5.844;5.851;5.858;5.865;5.872;5.878;5.885;5.892;5.899;5.906;5.913;5.920;5.927;5.935;5.942;5.949;5.956;5.963;5.970;5.978;5.985;5.992;5.999;6.006;6.013;6.016;6.011;5.997;5.988;5.970;5.951;5.932;5.914
6.069;6.062;6.054;6.046;6.039;6.031;6.023;6.017;6.009;6.002;5.995;5.988;5.981;5.975;5.968;5.961;5.954;5.947;5.941;5.934;5.926;5.919;5.911;5.904;5.897;5.890;5.884;5.877;5.870;5.863;5.856;5.849;5.842;5.835;5.829;5.822;5.815;5.809;5.803;5.797;5.790;5.784;5.777;5.771;5.764;5.758;5.752;5.745;5.739;5.733;5.726;5.720;5.713;5.707;5.701;5.695;5.689;5.682;5.676;5.670;5.664;5.658;5.652;5.646;5.640;5.634;5.628;5.621;5.615;5.609;5.603;5.597;5.590;5.584;5.578;5.572;5.566;5.560;5.554;5.548;5.542;5.536;5.531;5.525;5.520;5.514;5.509;5.504;5.498;5.493;5.487;5.482;5.477;5.471;5.466;5.461;5.456;5.451;5.445;5.440;5.435;5.430;5.425;5.420;5.415;5.410;5.405;5.400;5.396;5.391;5.386;5.381;5.376;5.371;5.367;5.362;5.358;5.353;5.349;5.345;5.341;5.337;5.333;5.329;5.324;5.319;5.315;5.311;5.308;5.304;5.300;5.297;5.293;5.289;5.285;5.281;5.277;5.273;5.269;5.266;5.262;5.258;5.254;5.250;5.246;5.243;5.239;5.235;2.699;2.698;2.706;2.672;2.665;2.665;5.210;5.207;5.203;5.200;5.197;5.193;5.190;5.187;5.184;5.181;5.178;5.174;5.171;5.168;5.165;5.162;5.159;5.156;5.153;5.151;5.148;5.145;5.142;5.139;5.137;5.134;5.131;5.129;5.126;5.124;5.121;5.119;5.116;5.114;5.111;5.109;5.106;5.104;5.102;5.099;5.097;5.095;5.093;5.091;5.088;5.086;5.084;5.082;5.080;5.078;5.076;5.074;5.073;5.071;5.070;5.068;5.066;5.065;5.063;2.765;2.745;2.735;2.727;2.721;2.713;2.708;2.704;2.700;2.696;2.693;2.690;2.687;2.684;2.667;2.667;2.669;2.669;2.669;2.667;2.665;2.659;2.652;2.653;2.656;2.659;2.661;2.664;2.665;2.666;2.667;2.668;2.669;2.670;2.672;2.674;2.677;2.680;2.684;2.688;2.693;2.698;2.702;2.707;2.712;2.719;2.729;2.739;2.752;2.770;5.037;5.038;5.038;5.038;5.038;5.038;5.039;5.040;5.041;5.043;5.044;5.046;5.046;5.047;5.047;5.047;5.048;5.048;5.049;5.051;5.052;5.054;5.055;5.057;5.058;5.060;5.061;5.063;5.065;5.066;5.068;5.070;5.071;5.073;5.075;5.076;5.078;5.080;5.082;5.084;5.086;5.088;5.091;5.093;5.096;5.099;5.101;5.104;5.106;5.109;5.111;5.113;5.116;5.118;5.121;5.123;5.126;5.128;5.131;5.133;5.136;5.139;5.141;5.144;5.147;5.150;5.154;5.157;5.160;5.162;5.165;5.167;5.170;5.172;5.175;5.178;5.180;5.183;5.186;5.189;5.192;5.195;5.198;5.201;5.205;5.208;5.212;5.216;5.220;5.224;5.228;5.231;5.235;5.239;5.242;5.246;5.249;5.253;5.257;5.261;5.265;5.269;5.273;5.277;5.281;5.285;5.289;5.294;5.298;5.302;5.306;5.311;5.315;5.319;5.323;5.328;5.332;5.336;5.341;5.345;5.349;5.354;5.358;5.363;5.367;5.372;5.376;5.380;5.385;5.390;5.395;5.400;5.405;5.410;5.415;5.420;5.425;5.428;5.431;5.435;5.438;5.443;5.448;5.453;5.458;5.463;5.468;5.473;5.478;5.483;5.489;5.495;5.502;5.508;5.514;5.519;5.524;5.529;5.535;5.541;5.547;5.553;5.559;5.566;5.573;5.579;5.586;5.591;5.597;5.602;5.608;5.614;5.620;5.625;5.631;5.637;5.643;5.649;5.655;5.661;5.667;5.673;5.679;5.686;5.692;5.698;5.704;5.711;5.717;5.724;5.731;5.737;5.744;5.751;5.758;5.765;5.771;5.778;5.784;5.791;5.798;5.804;5.811;5.818;5.825;5.831;5.838;5.844;5.851;5.858;5.865;5.872;5.879;5.886;5.893;5.900;5.908;5.915;5.922;5.929;5.936;5.943;5.950;5.957;5.964;5.971;5.977;5.984;5.983;5.973;5.964;5.952;5.933;5.914
6.028;6.021;6.013;6.005;5.998;5.991;5.984;5.977;5.970;5.963;5.956;5.949;5.942;5.935;5.928;5.922;5.915;5.908;5.901;5.894;5.886;5.879;5.873;5.866;5.859;5.852;5.845;5.838;5.831;5.825;5.818;5.811;5.804;5.797;5.790;5.783;5.777;5.771;5.764;5.758;5.751;5.745;5.738;5.732;5.726;5.719;5.713;5.706;5.700;5.694;5.687;5.681;5.674;5.668;5.662;5.656;5.650;5.643;5.637;5.631;5.625;5.619;5.614;5.608;5.601;5.595;5.589;5.583;5.576;5.570;5.564;5.558;5.552;5.546;5.540;5.534;5.528;5.522;5.516;5.510;5.504;5.498;5.492;5.487;5.481;5.476;5.471;5.465;5.460;5.455;5.449;5.444;5.439;5.434;5.429;5.424;5.419;5.414;5.408;5.403;5.398;5.393;5.388;5.383;5.378;5.373;5.369;5.364;5.359;5.354;5.349;5.344;5.339;5.334;5.329;5.325;5.320;5.316;5.313;5.309;5.305;5.301;5.297;5.294;5.288;5.283;5.279;5.275;5.271;5.268;5.264;5.260;5.256;5.252;5.249;5.245;5.241;5.237;5.233;5.229;5.225;5.221;5.218;5.214;5.210;5.206;5.203;5.199;2.704;2.699;2.700;2.730;2.671;2.667;2.666;2.668;2.672;5.164;5.160;5.157;5.154;5.151;5.148;5.145;5.142;5.139;5.136;5.133;5.130;5.127;5.124;5.121;5.118;5.115;5.113;5.110;5.107;5.104;5.101;5.099;5.096;5.093;5.090;5.087;5.085;5.082;5.080;5.078;5.076;5.073;5.071;5.069;5.066;5.064;5.062;5.060;5.058;5.055;5.053;5.051;5.048;5.046;5.044;5.042;5.041;5.039;5.038;5.036;5.035;5.033;5.031;5.030;5.028;2.766;2.747;2.737;2.729;2.722;2.715;2.710;2.706;2.701;2.698;2.695;2.691;2.688;2.685;2.669;2.669;2.670;2.670;2.670;2.668;2.667;2.665;2.656;2.654;2.656;2.659;2.661;2.664;2.667;2.669;2.671;2.673;2.673;2.675;2.677;2.679;2.681;2.684;2.687;2.690;2.695;2.699;2.704;2.708;2.713;2.719;2.728;2.739;2.753;2.772;5.002;5.003;5.004;5.005;5.005;5.006;5.007;5.007;5.008;5.009;5.010;5.011;5.012;5.012;5.013;5.013;5.013;5.014;5.016;5.017;5.019;5.020;5.022;5.023;5.025;5.026;5.028;5.029;5.031;5.032;5.034;5.036;5.037;5.039;5.041;5.043;5.044;5.046;5.048;5.050;5.052;5.054;5.057;5.059;5.061;5.064;5.066;5.069;5.071;5.074;5.076;5.078;5.081;5.083;5.085;5.088;5.090;5.093;5.095;5.098;5.101;5.103;5.106;5.109;5.112;5.115;5.118;5.121;5.124;5.128;5.130;5.133;5.135;5.137;5.140;5.143;5.146;5.149;5.152;5.155;5.158;5.161;5.164;5.167;5.170;5.173;5.177;5.181;5.185;5.189;5.193;5.196;5.200;5.204;5.207;5.211;5.215;5.218;5.222;5.226;5.230;5.234;5.238;5.242;5.246;5.250;5.254;5.258;5.262;5.266;5.270;5.274;5.278;5.282;5.287;5.291;5.295;5.300;5.304;5.308;5.313;5.317;5.321;5.326;5.330;5.335;5.339;5.344;5.348;5.353;5.358;5.363;5.367;5.372;5.377;5.382;5.387;5.392;5.397;5.401;5.404;5.407;5.412;5.417;5.422;5.427;5.432;5.437;5.442;5.446;5.452;5.458;5.464;5.470;5.476;5.481;5.487;5.493;5.499;5.505;5.510;5.516;5.522;5.528;5.535;5.541;5.548;5.554;5.560;5.565;5.571;5.577;5.582;5.588;5.594;5.600;5.605;5.611;5.617;5.623;5.629;5.635;5.641;5.647;5.653;5.659;5.665;5.671;5.679;5.686;5.694;5.701;5.708;5.714;5.721;5.728;5.734;5.740;5.746;5.752;5.759;5.766;5.773;5.779;5.786;5.793;5.800;5.806;5.813;5.819;5.826;5.832;5.839;5.846;5.853;5.859;5.866;5.873;5.880;5.887;5.894;5.901;5.908;5.915;5.922;5.930;5.937;5.944;5.951;5.956;5.949;5.941;5.932;5.915
5.989;5.981;5.974;5.967;5.960;5.953;5.946;5.939;5.932;5.925;5.918;5.911;5.904;5.897;5.890;5.883;5.876;5.869;5.862;5.855;5.848;5.841;5.835;5.828;5.821;5.814;5.807;5.800;5.793;5.786;5.779;5.772;5.765;5.758;5.752;5.745;5.739;5.732;5.726;5.719;5.713;5.707;5.700;5.694;5.687;5.681;5.674;5.668;5.661;5.655;5.649;5.642;5.636;5.630;5.624;5.617;5.611;5.605;5.599;5.593;5.587;5.581;5.576;5.570;5.563;5.557;5.551;5.545;5.538;5.532;5.526;5.520;5.514;5.508;5.502;5.496;5.490;5.484;5.478;5.472;5.466;5.460;5.455;5.449;5.444;5.439;5.433;5.428;5.423;5.418;5.413;5.407;5.402;5.397;5.392;5.387;5.382;5.377;5.372;5.367;5.362;5.357;5.352;5.347;5.342;5.337;5.332;5.327;5.322;5.317;5.312;5.307;5.303;5.298;5.294;5.289;5.285;5.281;5.278;5.274;5.270;5.266;5.263;5.258;5.253;5.249;5.245;5.240;5.236;5.232;5.228;5.224;5.220;5.217;5.213;5.209;5.205;5.201;5.197;5.193;5.189;5.186;5.182;5.178;5.174;5.171;5.167;5.163;5.160;2.701;2.699;2.703;2.728;5.142;2.671;2.671;2.672;2.677;5.125;5.121;5.118;5.115;5.112;5.109;5.106;5.104;5.101;5.098;5.095;5.092;5.089;5.087;5.084;5.081;5.078;5.075;5.072;5.069;5.066;5.063;5.060;5.057;5.054;5.052;5.049;5.047;5.045;5.042;5.040;5.038;5.036;5.034;5.032;5.030;5.027;5.025;5.023;5.020;5.018;5.016;5.014;5.011;5.010;5.008;5.006;5.005;5.003;5.002;5.000;4.999;4.997;4.995;4.994;2.768;2.751;2.739;2.731;2.724;2.718;2.713;2.709;2.704;2.700;2.697;2.694;2.690;2.687;2.674;2.671;2.672;2.672;2.671;2.670;2.669;2.668;2.666;2.658;2.658;2.660;2.662;2.664;2.667;2.669;2.673;2.675;2.677;2.678;2.679;2.681;2.683;2.686;2.689;2.692;2.695;2.699;2.704;2.709;2.713;2.719;2.728;2.740;2.754;2.773;4.967;4.968;4.969;4.970;4.971;4.971;4.972;4.973;4.974;4.975;4.976;4.977;4.978;4.979;4.979;4.979;4.980;4.981;4.983;4.984;4.986;4.987;4.988;4.990;4.991;4.993;4.994;4.996;4.997;4.999;5.000;5.002;5.004;5.005;5.007;5.009;5.011;5.012;5.014;5.016;5.018;5.020;5.022;5.025;5.027;5.029;5.032;5.034;5.037;5.039;5.041;5.044;5.046;5.049;5.051;5.053;5.056;5.058;5.061;5.063;5.066;5.069;5.071;5.074;5.076;5.079;5.082;5.085;5.088;5.090;5.093;5.096;5.099;5.102;5.105;5.108;5.111;5.114;5.118;5.121;5.124;5.127;5.130;5.133;5.136;5.139;5.142;5.146;5.150;5.154;5.158;5.161;5.165;5.169;5.173;5.176;5.180;5.184;5.188;5.192;5.196;5.199;5.203;5.207;5.211;5.215;5.219;5.223;5.227;5.231;5.235;5.239;5.243;5.247;5.251;5.255;5.259;5.263;5.268;5.272;5.276;5.281;5.285;5.289;5.294;5.298;5.303;5.307;5.311;5.316;5.321;5.326;5.330;5.335;5.340;5.345;5.350;5.355;5.360;5.365;5.370;5.374;5.377;5.382;5.387;5.392;5.397;5.401;5.406;5.410;5.415;5.422;5.428;5.434;5.440;5.445;5.451;5.457;5.463;5.469;5.475;5.481;5.487;5.493;5.499;5.505;5.511;5.517;5.523;5.529;5.534;5.540;5.546;5.551;5.557;5.563;5.569;5.575;5.580;5.586;5.592;5.598;5.604;5.610;5.615;5.621;5.627;5.633;5.641;5.648;5.656;5.663;5.671;5.678;5.685;5.691;5.697;5.703;5.709;5.715;5.721;5.728;5.734;5.741;5.748;5.755;5.762;5.768;5.775;5.781;5.788;5.794;5.801;5.808;5.815;5.822;5.828;5.835;5.842;5.849;5.856;5.863;5.870;5.877;5.885;5.890;5.898;5.905;5.913;5.920;5.927;5.926;5.918;5.910
5.949;5.942;5.935;5.928;5.921;5.914;5.907;5.900;5.893;5.886;5.879;5.872;5.865;5.858;5.851;5.844;5.837;5.830;5.823;5.816;5.809;5.802;5.796;5.789;5.782;5.775;5.768;5.761;5.754;5.747;5.740;5.733;5.726;5.720;5.714;5.707;5.701;5.694;5.688;5.681;5.675;5.669;5.662;5.656;5.649;5.643;5.636;5.630;5.623;5.617;5.611;5.604;5.598;5.592;5.586;5.580;5.574;5.568;5.562;5.556;5.550;5.544;5.538;5.532;5.525;5.519;5.513;5.506;5.501;5.495;5.489;5.483;5.477;5.472;5.466;5.460;5.454;5.448;5.442;5.436;5.430;5.425;5.419;5.414;5.408;5.403;5.397;5.392;5.387;5.381;5.376;5.371;5.366;5.361;5.356;5.351;5.346;5.341;5.336;5.331;5.326;5.321;5.316;5.311;5.306;5.301;5.296;5.292;5.287;5.283;5.278;5.274;5.269;5.265;5.260;5.256;5.252;5.248;5.244;5.239;5.235;5.232;5.228;5.223;5.219;5.215;5.211;5.206;5.202;5.198;5.194;5.190;5.186;5.182;5.177;5.174;5.170;5.166;5.162;5.158;5.154;5.150;5.147;5.143;5.139;5.135;5.132;5.128;5.125;5.121;2.701;2.701;2.702;2.710;5.103;5.100;5.097;5.094;5.091;5.088;5.084;5.081;5.077;5.074;5.072;5.069;5.066;5.063;5.060;5.057;5.055;5.052;5.049;5.046;5.043;5.040;5.037;5.034;5.031;5.028;5.025;5.022;5.019;5.017;5.015;5.012;5.010;5.008;5.006;5.004;5.001;4.999;4.997;4.995;4.993;4.991;4.989;4.987;4.985;4.983;4.981;4.979;4.978;4.976;4.974;4.973;4.971;4.970;4.968;4.966;4.964;4.962;4.961;2.772;2.755;2.742;2.733;2.726;2.720;2.715;2.711;2.707;2.702;2.699;2.696;2.693;2.689;2.683;2.674;2.674;2.674;2.672;2.671;2.671;2.669;2.670;2.668;2.661;2.661;2.663;2.666;2.668;2.670;2.673;2.676;2.680;2.682;2.683;2.684;2.685;2.687;2.690;2.693;2.696;2.700;2.704;2.709;2.714;2.720;2.729;2.741;2.756;2.774;4.933;4.934;4.935;4.936;4.937;4.937;4.938;4.939;4.940;4.941;4.943;4.944;4.945;4.946;4.946;4.946;4.947;4.949;4.950;4.951;4.953;4.954;4.956;4.957;4.958;4.960;4.961;4.962;4.964;4.965;4.967;4.969;4.970;4.972;4.974;4.975;4.977;4.979;4.981;4.983;4.985;4.987;4.989;4.991;4.993;4.995;4.998;5.000;5.002;5.005;5.007;5.010;5.012;5.015;5.017;5.020;5.022;5.025;5.027;5.029;5.032;5.034;5.037;5.040;5.042;5.045;5.048;5.050;5.053;5.056;5.059;5.062;5.065;5.068;5.071;5.074;5.077;5.080;5.083;5.086;5.089;5.093;5.096;5.099;5.103;5.106;5.109;5.112;5.116;5.120;5.123;5.127;5.131;5.134;5.138;5.142;5.146;5.150;5.153;5.157;5.161;5.165;5.169;5.172;5.176;5.180;5.184;5.188;5.192;5.196;5.200;5.204;5.208;5.212;5.216;5.220;5.224;5.228;5.232;5.236;5.241;5.245;5.249;5.253;5.258;5.262;5.266;5.271;5.275;5.280;5.284;5.289;5.294;5.299;5.303;5.308;5.313;5.318;5.323;5.328;5.333;5.338;5.343;5.348;5.352;5.357;5.361;5.366;5.370;5.375;5.380;5.386;5.391;5.397;5.403;5.408;5.414;5.420;5.425;5.431;5.436;5.442;5.448;5.454;5.460;5.466;5.472;5.478;5.484;5.491;5.497;5.503;5.509;5.515;5.521;5.527;5.533;5.538;5.544;5.550;5.556;5.562;5.568;5.574;5.579;5.585;5.591;5.597;5.603;5.610;5.616;5.623;5.629;5.637;5.644;5.652;5.659;5.666;5.672;5.678;5.684;5.691;5.697;5.703;5.710;5.717;5.724;5.731;5.737;5.744;5.751;5.757;5.764;5.771;5.778;5.784;5.791;5.798;5.805;5.812;5.819;5.826;5.833;5.841;5.847;5.852;5.858;5.866;5.874;5.881;5.889;5.896;5.898;5.896
5.909;5.902;5.895;5.888;5.881;5.874;5.867;5.860;5.853;5.846;5.840;5.833;5.826;5.819;5.812;5.805;5.798;5.791;5.784;5.777;5.770;5.764;5.757;5.750;5.743;5.736;5.729;5.722;5.715;5.708;5.702;5.695;5.689;5.682;5.676;5.670;5.663;5.657;5.650;5.644;5.637;5.631;5.624;5.618;5.611;5.605;5.599;5.592;5.586;5.580;5.573;5.567;5.561;5.555;5.548;5.542;5.536;5.530;5.525;5.519;5.513;5.506;5.500;5.493;5.488;5.482;5.476;5.470;5.464;5.458;5.453;5.447;5.441;5.436;5.430;5.424;5.418;5.412;5.407;5.401;5.396;5.390;5.385;5.379;5.374;5.368;5.363;5.358;5.352;5.347;5.342;5.337;5.331;5.326;5.321;5.316;5.311;5.306;5.301;5.296;5.291;5.287;5.282;5.277;5.272;5.268;5.263;5.259;5.254;5.249;5.245;5.240;5.236;5.232;5.228;5.223;5.219;5.215;5.211;5.206;5.202;5.197;5.193;5.189;5.185;5.180;5.176;5.172;5.168;5.163;5.159;5.155;5.151;5.147;5.143;5.139;5.135;5.131;5.127;5.124;5.120;5.116;5.112;5.108;5.105;5.101;5.097;5.093;5.090;5.086;5.083;5.080;5.077;5.074;5.071;5.068;5.064;5.061;5.058;5.055;5.051;5.048;5.044;5.041;5.037;5.034;5.032;5.029;5.026;5.024;5.021;5.019;5.016;5.014;5.010;5.006;5.003;5.000;4.997;4.994;4.991;4.988;4.986;4.984;4.981;4.979;4.977;4.975;4.972;4.970;4.968;4.966;4.964;4.962;4.960;4.958;4.956;4.954;4.953;4.951;4.949;4.947;4.946;4.944;4.943;4.941;4.940;4.939;4.937;4.935;4.933;4.931;4.929;2.775;2.758;2.746;2.736;2.729;2.722;2.717;2.713;2.708;2.705;2.701;2.698;2.695;2.691;2.687;2.680;2.677;2.677;2.674;2.673;2.673;2.672;2.672;2.672;2.668;2.664;2.665;2.667;2.669;2.671;2.674;2.676;2.680;2.683;2.686;2.687;2.689;2.690;2.692;2.695;2.698;2.702;2.706;2.711;2.716;2.722;2.730;2.743;2.758;2.775;4.901;4.902;4.903;4.903;4.904;4.905;4.905;4.906;4.907;4.909;4.910;4.911;4.912;4.913;4.913;4.914;4.915;4.917;4.918;4.919;4.920;4.921;4.922;4.924;4.925;4.927;4.928;4.930;4.931;4.933;4.934;4.936;4.937;4.939;4.941;4.943;4.944;4.946;4.948;4.950;4.952;4.953;4.955;4.958;4.960;4.962;4.964;4.967;4.969;4.971;4.974;4.976;4.979;4.981;4.984;4.986;4.988;4.991;4.993;4.996;4.998;5.001;5.003;5.006;5.009;5.011;5.014;5.017;5.020;5.022;5.025;5.028;5.031;5.033;5.036;5.039;5.042;5.045;5.049;5.052;5.055;5.058;5.061;5.065;5.068;5.071;5.075;5.078;5.082;5.086;5.089;5.093;5.097;5.100;5.104;5.108;5.112;5.116;5.119;5.123;5.127;5.131;5.134;5.138;5.142;5.146;5.150;5.154;5.158;5.162;5.166;5.170;5.174;5.178;5.182;5.186;5.190;5.194;5.198;5.202;5.206;5.210;5.214;5.218;5.222;5.227;5.231;5.235;5.240;5.244;5.249;5.253;5.258;5.262;5.267;5.271;5.276;5.281;5.285;5.290;5.295;5.300;5.305;5.309;5.314;5.319;5.324;5.329;5.334;5.339;5.344;5.350;5.355;5.361;5.366;5.372;5.378;5.383;5.389;5.395;5.400;5.406;5.411;5.417;5.422;5.428;5.434;5.440;5.446;5.452;5.459;5.465;5.471;5.477;5.483;5.489;5.495;5.501;5.507;5.514;5.520;5.526;5.532;5.538;5.544;5.550;5.556;5.561;5.567;5.574;5.580;5.587;5.593;5.600;5.606;5.613;5.619;5.626;5.634;5.640;5.647;5.654;5.660;5.666;5.673;5.680;5.686;5.693;5.700;5.707;5.714;5.720;5.727;5.734;5.741;5.748;5.755;5.761;5.768;5.775;5.782;5.789;5.795;5.802;5.810;5.817;5.824;5.831;5.838;5.845;5.852;5.859;5.866;5.871
5.871;5.864;5.857;5.850;5.843;5.836;5.829;5.822;5.815;5.808;5.801;5.794;5.787;5.780;5.773;5.766;5.759;5.753;5.746;5.739;5.732;5.725;5.718;5.711;5.704;5.697;5.690;5.684;5.677;5.671;5.664;5.658;5.652;5.645;5.639;5.633;5.626;5.620;5.613;5.606;5.600;5.594;5.587;5.581;5.574;5.568;5.561;5.555;5.549;5.543;5.536;5.530;5.524;5.518;5.512;5.506;5.500;5.494;5.488;5.481;5.475;5.469;5.463;5.457;5.452;5.446;5.440;5.434;5.428;5.423;5.417;5.411;5.406;5.400;5.394;5.389;5.383;5.378;5.372;5.367;5.361;5.356;5.351;5.345;5.340;5.334;5.329;5.324;5.318;5.313;5.308;5.303;5.298;5.292;5.287;5.282;5.277;5.272;5.268;5.263;5.258;5.253;5.249;5.244;5.239;5.235;5.230;5.226;5.221;5.217;5.212;5.208;5.203;5.199;5.194;5.190;5.185;5.180;5.176;5.171;5.167;5.163;5.158;5.154;5.149;5.145;5.141;5.137;5.133;5.129;5.125;5.121;5.117;5.113;5.109;5.105;5.101;5.097;5.093;5.090;5.086;5.082;5.078;5.075;5.071;5.067;5.064;5.061;5.058;5.055;5.051;5.048;5.045;5.042;5.038;5.035;5.032;5.029;5.026;5.022;5.019;5.016;5.012;5.009;5.006;5.003;5.000;4.996;4.993;4.991;4.988;4.986;4.983;4.981;4.978;4.975;4.971;4.967;4.964;4.961;4.958;4.956;4.953;4.951;4.948;4.946;4.944;4.942;4.939;4.937;4.935;4.933;4.931;4.929;4.927;4.925;4.922;4.921;4.919;4.918;4.917;4.915;4.913;4.912;4.911;4.909;4.908;4.907;4.905;4.903;4.902;4.900;4.898;2.779;2.762;2.750;2.740;2.732;2.725;2.719;2.715;2.711;2.707;2.703;2.700;2.697;2.694;2.690;2.686;2.682;2.680;2.677;2.675;2.675;2.675;2.674;2.675;2.675;2.670;2.668;2.669;2.671;2.673;2.675;2.678;2.681;2.684;2.688;2.690;2.692;2.694;2.696;2.698;2.701;2.704;2.708;2.713;2.718;2.724;2.732;2.744;2.759;2.775;2.799;4.870;4.871;4.871;4.872;4.872;4.873;4.874;4.875;4.876;4.877;4.878;4.880;4.881;4.881;4.882;4.883;4.884;4.886;4.887;4.888;4.889;4.890;4.891;4.892;4.894;4.895;4.897;4.898;4.900;4.902;4.903;4.905;4.906;4.908;4.910;4.911;4.913;4.915;4.917;4.919;4.921;4.923;4.925;4.927;4.930;4.932;4.934;4.937;4.939;4.941;4.944;4.946;4.949;4.951;4.953;4.955;4.957;4.960;4.962;4.965;4.967;4.970;4.972;4.975;4.978;4.981;4.984;4.987;4.990;4.992;4.995;4.998;5.001;5.004;5.006;5.009;5.012;5.015;5.018;5.021;5.024;5.028;5.031;5.035;5.038;5.042;5.045;5.049;5.052;5.056;5.060;5.063;5.067;5.071;5.075;5.078;5.082;5.086;5.089;5.093;5.097;5.101;5.105;5.108;5.112;5.116;5.120;5.124;5.128;5.132;5.136;5.140;5.144;5.148;5.152;5.155;5.159;5.163;5.167;5.171;5.176;5.180;5.184;5.188;5.192;5.197;5.201;5.205;5.210;5.214;5.218;5.223;5.228;5.233;5.237;5.242;5.246;5.251;5.256;5.261;5.265;5.270;5.275;5.280;5.285;5.290;5.295;5.300;5.305;5.310;5.315;5.320;5.326;5.331;5.337;5.342;5.348;5.353;5.359;5.364;5.370;5.376;5.381;5.387;5.393;5.398;5.404;5.410;5.415;5.421;5.427;5.433;5.439;5.445;5.451;5.457;5.463;5.470;5.476;5.482;5.488;5.494;5.501;5.507;5.513;5.520;5.526;5.532;5.538;5.545;5.551;5.558;5.564;5.570;5.577;5.583;5.590;5.596;5.603;5.610;5.616;5.623;5.630;5.636;5.643;5.650;5.656;5.663;5.670;5.677;5.684;5.690;5.697;5.704;5.711;5.718;5.724;5.731;5.738;5.745;5.752;5.759;5.765;5.772;5.779;5.786;5.793;5.800;5.807;5.814;5.821;5.828;5.835
5.833;5.826;5.819;5.812;5.805;5.798;5.791;5.784;5.777;5.770;5.763;5.756;5.749;5.742;5.735;5.728;5.721;5.714;5.708;5.701;5.694;5.687;5.680;5.673;5.666;5.660;5.653;5.647;5.641;5.634;5.628;5.621;5.614;5.608;5.601;5.595;5.588;5.582;5.576;5.569;5.563;5.557;5.550;5.544;5.538;5.531;5.525;5.519;5.512;5.506;5.500;5.494;5.488;5.482;5.475;5.469;5.463;5.457;5.451;5.445;5.440;5.434;5.428;5.422;5.416;5.411;5.405;5.399;5.393;5.388;5.382;5.376;5.370;5.364;5.359;5.354;5.348;5.343;5.338;5.332;5.327;5.322;5.316;5.311;5.306;5.301;5.295;5.290;5.285;5.280;5.275;5.269;5.264;5.259;5.254;5.249;5.244;5.240;5.235;5.230;5.225;5.221;5.216;5.211;5.206;5.201;5.197;5.192;5.187;5.183;5.178;5.173;5.168;5.164;5.159;5.155;5.150;5.146;5.141;5.137;5.133;5.128;5.124;5.119;5.115;5.111;5.107;5.103;5.098;5.094;5.090;5.086;5.082;5.078;5.075;5.071;5.067;5.063;5.060;5.056;5.053;5.050;5.046;5.042;5.039;5.036;5.033;5.030;5.027;5.024;5.021;5.017;5.014;5.010;5.007;5.003;5.000;4.996;4.993;4.990;4.987;4.983;4.980;4.977;4.974;4.971;4.969;4.966;4.963;4.960;4.957;4.954;4.951;4.949;4.946;4.943;4.940;4.936;4.932;4.929;4.926;4.923;4.921;4.919;4.916;4.914;4.912;4.909;4.907;4.905;4.903;4.900;4.898;4.896;4.894;4.892;4.890;4.889;4.888;4.886;4.884;4.883;4.881;4.879;4.878;4.876;4.875;4.874;4.872;4.871;4.869;4.868;4.866;2.783;2.766;2.754;2.744;2.736;2.729;2.723;2.718;2.713;2.709;2.706;2.703;2.700;2.697;2.693;2.691;2.691;2.684;2.681;2.678;2.678;2.679;2.678;2.677;2.679;2.677;2.672;2.672;2.673;2.675;2.677;2.679;2.682;2.685;2.689;2.692;2.695;2.697;2.699;2.701;2.703;2.706;2.709;2.714;2.720;2.727;2.735;2.746;2.760;2.776;2.799;4.839;4.839;4.840;4.840;4.841;4.842;4.842;4.843;4.844;4.845;4.846;4.847;4.849;4.850;4.851;4.852;4.853;4.854;4.855;4.856;4.857;4.858;4.859;4.860;4.862;4.863;4.864;4.866;4.867;4.869;4.870;4.872;4.874;4.875;4.877;4.879;4.881;4.883;4.885;4.887;4.889;4.891;4.893;4.895;4.898;4.900;4.902;4.905;4.907;4.909;4.912;4.914;4.916;4.918;4.919;4.921;4.923;4.926;4.929;4.931;4.934;4.937;4.939;4.942;4.945;4.948;4.951;4.953;4.956;4.959;4.963;4.966;4.968;4.971;4.974;4.977;4.980;4.983;4.986;4.989;4.993;4.996;4.999;5.002;5.006;5.009;5.012;5.016;5.020;5.023;5.027;5.031;5.034;5.038;5.042;5.045;5.049;5.053;5.056;5.060;5.064;5.067;5.071;5.075;5.079;5.083;5.087;5.091;5.095;5.099;5.102;5.106;5.110;5.114;5.118;5.122;5.126;5.130;5.134;5.138;5.142;5.146;5.150;5.154;5.158;5.162;5.167;5.171;5.175;5.180;5.184;5.188;5.193;5.199;5.203;5.208;5.213;5.217;5.222;5.227;5.231;5.236;5.241;5.246;5.251;5.255;5.260;5.265;5.271;5.276;5.281;5.286;5.291;5.297;5.302;5.308;5.313;5.319;5.324;5.330;5.335;5.341;5.346;5.352;5.358;5.363;5.369;5.375;5.380;5.386;5.392;5.398;5.404;5.410;5.416;5.422;5.428;5.434;5.440;5.446;5.452;5.459;5.465;5.471;5.477;5.484;5.490;5.496;5.503;5.509;5.516;5.522;5.528;5.535;5.541;5.548;5.554;5.561;5.567;5.574;5.580;5.587;5.594;5.600;5.607;5.614;5.620;5.627;5.634;5.640;5.647;5.654;5.661;5.668;5.674;5.681;5.688;5.695;5.702;5.708;5.715;5.722;5.728;5.735;5.742;5.748;5.755;5.762;5.769;5.776;5.783;5.790;5.797
5.796;5.789;5.781;5.774;5.767;5.760;5.753;5.746;5.739;5.732;5.724;5.717;5.711;5.704;5.697;5.690;5.684;5.677;5.670;5.663;5.656;5.649;5.643;5.636;5.630;5.623;5.616;5.610;5.603;5.597;5.590;5.583;5.577;5.570;5.564;5.558;5.551;5.545;5.539;5.532;5.526;5.520;5.514;5.507;5.501;5.495;5.489;5.483;5.477;5.471;5.464;5.458;5.452;5.446;5.440;5.434;5.428;5.422;5.417;5.411;5.405;5.399;5.393;5.387;5.382;5.376;5.370;5.364;5.358;5.352;5.345;5.339;5.334;5.329;5.324;5.319;5.314;5.309;5.304;5.298;5.293;5.287;5.282;5.277;5.272;5.267;5.261;5.256;5.251;5.246;5.241;5.236;5.231;5.226;5.221;5.216;5.211;5.206;5.201;5.196;5.191;5.186;5.181;5.176;5.172;5.167;5.162;5.157;5.153;5.148;5.144;5.139;5.134;5.129;5.125;5.121;5.116;5.112;5.108;5.103;5.099;5.094;5.090;5.086;5.081;5.077;5.073;5.069;5.065;5.061;5.056;5.053;5.049;5.045;5.041;5.037;5.034;5.031;5.028;5.024;5.021;5.018;5.014;5.011;5.008;5.005;5.002;4.999;4.996;4.992;4.988;4.985;4.981;4.977;4.974;4.970;4.967;4.963;4.960;4.957;4.954;4.950;4.947;4.944;4.941;4.938;4.936;4.933;4.930;4.927;4.925;4.922;4.919;4.917;4.914;4.911;4.908;4.905;4.903;4.900;4.897;4.894;4.891;4.888;4.885;4.883;4.881;4.879;4.876;4.874;4.872;4.870;4.867;4.865;4.863;4.861;4.860;4.858;4.856;4.854;4.852;4.851;4.849;4.847;4.845;4.844;4.843;4.841;4.840;4.839;4.837;4.836;4.834;2.786;2.769;2.757;2.748;2.740;2.734;2.728;2.722;2.717;2.713;2.709;2.706;2.704;2.700;2.696;2.696;2.696;2.692;2.686;2.682;2.681;2.682;2.682;2.680;2.682;2.682;2.679;2.676;2.676;2.677;2.679;2.681;2.684;2.687;2.690;2.693;2.697;2.700;2.702;2.704;2.706;2.708;2.712;2.717;2.723;2.729;2.737;2.747;2.760;2.779;2.802;4.808;4.808;4.808;4.809;4.809;4.810;4.811;4.812;4.813;4.814;4.815;4.816;4.817;4.818;4.819;4.820;4.821;4.822;4.823;4.824;4.825;4.826;4.828;4.829;4.830;4.831;4.833;4.834;4.835;4.837;4.838;4.840;4.842;4.844;4.846;4.847;4.849;4.851;4.853;4.855;4.857;4.859;4.862;4.864;4.866;4.868;4.871;4.873;4.875;4.878;4.880;4.881;4.883;4.885;4.887;4.888;4.890;4.893;4.896;4.898;4.901;4.904;4.906;4.909;4.912;4.915;4.918;4.921;4.924;4.927;4.930;4.933;4.936;4.939;4.942;4.945;4.948;4.951;4.954;4.958;4.961;4.964;4.967;4.970;4.974;4.977;4.980;4.984;4.987;4.991;4.994;4.998;5.002;5.005;5.009;5.013;5.016;5.020;5.024;5.027;5.031;5.035;5.039;5.042;5.046;5.050;5.054;5.058;5.062;5.066;5.069;5.073;5.077;5.081;5.084;5.088;5.092;5.096;5.100;5.104;5.108;5.112;5.117;5.121;5.125;5.130;5.134;5.139;5.143;5.147;5.151;5.155;5.159;5.164;5.169;5.175;5.179;5.184;5.189;5.193;5.198;5.203;5.207;5.212;5.217;5.222;5.227;5.232;5.237;5.242;5.247;5.252;5.258;5.263;5.268;5.274;5.279;5.284;5.290;5.295;5.300;5.305;5.311;5.316;5.322;5.328;5.334;5.340;5.346;5.352;5.358;5.364;5.369;5.375;5.381;5.387;5.393;5.399;5.405;5.411;5.418;5.424;5.430;5.436;5.442;5.449;5.455;5.461;5.468;5.474;5.480;5.487;5.493;5.500;5.506;5.512;5.519;5.525;5.532;5.538;5.545;5.551;5.558;5.565;5.571;5.578;5.584;5.591;5.598;5.605;5.611;5.618;5.625;5.632;5.638;5.645;5.652;5.659;5.665;5.672;5.679;5.686;5.692;5.699;5.705;5.712;5.719;5.725;5.732;5.739;5.746;5.753;5.760
5.759;5.751;5.744;5.737;5.730;5.722;5.715;5.708;5.701;5.694;5.687;5.680;5.673;5.666;5.660;5.653;5.646;5.640;5.633;5.626;5.619;5.613;5.606;5.599;5.592;5.586;5.579;5.573;5.566;5.559;5.553;5.546;5.540;5.534;5.527;5.521;5.515;5.508;5.502;5.496;5.490;5.484;5.478;5.472;5.466;5.460;5.453;5.447;5.441;5.435;5.429;5.423;5.417;5.412;5.406;5.400;5.394;5.388;5.382;5.376;5.370;5.365;5.359;5.353;5.347;5.340;5.334;5.328;5.322;5.315;5.310;5.305;5.299;5.294;5.289;5.284;5.279;5.274;5.269;5.264;5.259;5.254;5.249;5.243;5.238;5.233;5.228;5.223;5.218;5.213;5.208;5.202;5.197;5.192;5.187;5.181;5.176;5.171;5.166;5.162;5.157;5.152;5.147;5.142;5.138;5.133;5.128;5.124;5.119;5.114;5.110;5.105;5.100;5.096;5.091;5.086;5.082;5.078;5.073;5.069;5.065;5.061;5.057;5.052;5.048;5.044;5.039;5.035;5.031;5.027;5.023;5.019;5.015;5.012;5.009;5.006;5.003;4.999;4.996;4.993;4.989;4.985;4.982;4.979;4.976;4.973;4.969;4.966;4.962;4.959;4.955;4.952;4.948;4.945;4.941;4.938;4.934;4.931;4.928;4.924;4.921;4.918;4.915;4.912;4.909;4.906;4.903;4.900;4.898;4.895;4.892;4.889;4.886;4.884;4.881;4.878;4.874;4.870;4.868;4.865;4.863;4.860;4.857;4.855;4.853;4.852;4.850;4.847;4.845;4.843;4.841;4.839;4.837;4.835;4.833;4.831;4.829;4.827;4.825;4.823;4.821;4.819;4.818;4.816;4.814;4.812;4.811;4.809;4.808;4.807;4.805;4.804;4.802;2.790;2.773;2.761;2.751;2.743;2.737;2.732;2.727;2.722;2.718;2.714;2.711;2.708;2.705;2.699;2.701;2.699;2.703;2.692;2.687;2.685;2.687;2.687;2.685;2.684;2.686;2.685;2.682;2.680;2.680;2.681;2.683;2.686;2.688;2.691;2.694;2.697;2.701;2.704;2.706;2.709;2.712;2.715;2.720;2.725;2.732;2.739;2.748;2.761;2.784;2.809;4.777;4.777;4.778;4.778;4.779;4.779;4.780;4.781;4.782;4.783;4.784;4.785;4.786;4.787;4.788;4.789;4.790;4.791;4.792;4.793;4.794;4.795;4.796;4.798;4.799;4.800;4.801;4.803;4.804;4.805;4.807;4.809;4.811;4.813;4.814;4.816;4.818;4.820;4.822;4.824;4.826;4.828;4.830;4.832;4.834;4.836;4.839;4.841;4.843;4.845;4.847;4.849;4.851;4.852;4.854;4.856;4.858;4.861;4.864;4.867;4.869;4.872;4.875;4.878;4.881;4.883;4.886;4.889;4.892;4.895;4.898;4.901;4.904;4.907;4.910;4.913;4.916;4.919;4.923;4.926;4.929;4.932;4.935;4.938;4.942;4.945;4.948;4.951;4.954;4.958;4.962;4.965;4.969;4.973;4.976;4.980;4.983;4.987;4.991;4.995;4.999;5.002;5.006;5.010;5.014;5.018;5.021;5.025;5.029;5.033;5.037;5.040;5.044;5.048;5.051;5.055;5.059;5.063;5.067;5.071;5.075;5.079;5.084;5.088;5.092;5.097;5.101;5.106;5.110;5.114;5.119;5.123;5.128;5.133;5.137;5.142;5.146;5.151;5.156;5.160;5.165;5.170;5.174;5.179;5.184;5.189;5.194;5.199;5.204;5.209;5.214;5.219;5.224;5.229;5.234;5.239;5.244;5.250;5.255;5.260;5.265;5.271;5.276;5.281;5.287;5.293;5.299;5.305;5.311;5.317;5.323;5.329;5.335;5.341;5.347;5.353;5.359;5.365;5.371;5.377;5.383;5.389;5.395;5.402;5.408;5.414;5.420;5.427;5.433;5.439;5.446;5.452;5.458;5.465;5.471;5.478;5.484;5.490;5.497;5.503;5.510;5.516;5.523;5.529;5.536;5.543;5.549;5.556;5.562;5.569;5.576;5.583;5.589;5.596;5.603;5.610;5.616;5.623;5.630;5.636;5.643;5.649;5.656;5.662;5.669;5.676;5.683;5.690;5.696;5.703;5.710;5.716;5.723
5.723;5.716;5.708;5.701;5.694;5.687;5.680;5.672;5.665;5.657;5.651;5.644;5.637;5.630;5.624;5.617;5.611;5.604;5.597;5.589;5.583;5.576;5.569;5.563;5.556;5.549;5.543;5.536;5.529;5.523;5.516;5.510;5.504;5.498;5.492;5.485;5.479;5.473;5.467;5.461;5.455;5.449;5.443;5.437;5.431;5.424;5.418;5.412;5.406;5.400;5.394;5.389;5.383;5.377;5.371;5.365;5.359;5.354;5.348;5.342;5.337;5.331;5.325;5.319;5.312;5.306;5.300;5.294;5.288;5.283;5.277;5.272;5.267;5.261;5.256;5.251;5.246;5.241;5.236;5.231;5.226;5.221;5.215;5.210;5.205;5.200;5.195;5.190;5.185;5.179;5.174;5.169;5.164;5.158;5.153;5.148;5.143;5.138;5.133;5.128;5.123;5.118;5.113;5.109;5.104;5.099;5.095;5.090;5.086;5.081;5.076;5.072;5.067;5.062;5.058;5.053;5.048;5.044;5.040;5.035;5.031;5.027;5.023;5.019;5.015;5.011;5.006;5.002;4.998;4.994;4.991;4.988;4.984;4.981;4.978;4.974;4.971;4.967;4.964;4.960;4.957;4.953;4.950;4.947;4.944;4.940;4.937;4.933;4.930;4.926;4.923;4.919;4.916;4.912;4.909;4.906;4.902;4.899;4.896;4.892;4.889;4.886;4.883;4.880;4.877;4.874;4.871;4.868;4.865;4.862;4.859;4.857;4.854;4.851;4.848;4.844;4.841;4.837;4.833;4.831;4.828;4.826;4.825;4.824;4.823;4.820;4.818;4.816;4.814;4.812;4.810;4.807;4.805;4.803;4.801;4.799;4.797;4.796;4.794;4.792;4.790;4.788;4.787;4.785;4.783;4.782;4.780;4.778;4.777;4.775;4.774;4.772;4.771;2.794;2.776;2.765;2.755;2.747;2.740;2.735;2.731;2.727;2.723;2.719;2.716;2.713;2.710;2.704;2.705;2.703;2.708;2.702;2.693;2.690;2.691;2.692;2.691;2.688;2.689;2.690;2.688;2.686;2.684;2.685;2.686;2.688;2.691;2.693;2.696;2.699;2.702;2.705;2.708;2.711;2.714;2.718;2.723;2.728;2.734;2.740;2.749;2.763;2.787;2.815;4.747;4.747;4.747;4.748;4.748;4.749;4.750;4.751;4.752;4.752;4.753;4.754;4.755;4.756;4.757;4.758;4.759;4.760;4.761;4.762;4.763;4.765;4.766;4.767;4.768;4.769;4.770;4.772;4.773;4.775;4.776;4.778;4.780;4.782;4.784;4.786;4.788;4.790;4.791;4.793;4.795;4.797;4.799;4.801;4.803;4.805;4.807;4.809;4.812;4.814;4.815;4.817;4.819;4.820;4.823;4.825;4.828;4.830;4.833;4.836;4.839;4.842;4.844;4.847;4.850;4.852;4.855;4.858;4.861;4.864;4.867;4.869;4.873;4.876;4.879;4.882;4.885;4.888;4.891;4.894;4.897;4.901;4.904;4.907;4.910;4.913;4.916;4.919;4.922;4.926;4.929;4.933;4.937;4.940;4.943;4.947;4.951;4.954;4.958;4.962;4.966;4.970;4.974;4.978;4.982;4.986;4.990;4.993;4.997;5.001;5.004;5.008;5.012;5.015;5.019;5.023;5.027;5.030;5.034;5.039;5.043;5.047;5.051;5.056;5.060;5.064;5.069;5.073;5.077;5.082;5.086;5.091;5.095;5.100;5.104;5.109;5.114;5.119;5.123;5.128;5.132;5.137;5.142;5.146;5.151;5.156;5.160;5.165;5.170;5.175;5.180;5.185;5.190;5.196;5.201;5.206;5.211;5.216;5.221;5.226;5.231;5.236;5.242;5.247;5.252;5.258;5.264;5.270;5.276;5.282;5.288;5.294;5.300;5.306;5.312;5.319;5.325;5.331;5.337;5.344;5.350;5.356;5.362;5.368;5.374;5.380;5.387;5.393;5.399;5.405;5.412;5.418;5.424;5.431;5.437;5.443;5.449;5.456;5.462;5.469;5.475;5.482;5.488;5.495;5.501;5.507;5.514;5.521;5.527;5.534;5.541;5.547;5.554;5.561;5.568;5.574;5.581;5.588;5.594;5.601;5.607;5.613;5.620;5.627;5.633;5.640;5.646;5.653;5.660;5.667;5.674;5.681;5.687
5.687;5.680;5.673;5.666;5.658;5.650;5.642;5.635;5.629;5.622;5.615;5.609;5.602;5.595;5.589;5.582;5.575;5.568;5.560;5.553;5.546;5.540;5.533;5.526;5.520;5.513;5.507;5.500;5.494;5.487;5.481;5.475;5.468;5.462;5.456;5.450;5.444;5.438;5.432;5.426;5.420;5.414;5.408;5.402;5.396;5.390;5.384;5.378;5.372;5.366;5.360;5.355;5.349;5.344;5.338;5.332;5.327;5.321;5.315;5.309;5.303;5.298;5.292;5.286;5.280;5.274;5.268;5.262;5.256;5.251;5.246;5.240;5.235;5.230;5.225;5.220;5.214;5.209;5.203;5.198;5.192;5.187;5.182;5.177;5.172;5.167;5.162;5.156;5.151;5.146;5.140;5.135;5.130;5.125;5.120;5.114;5.109;5.104;5.100;5.095;5.090;5.085;5.080;5.076;5.071;5.066;5.062;5.057;5.053;5.048;5.044;5.039;5.034;5.030;5.025;5.020;5.016;5.011;5.007;5.002;4.998;4.994;4.990;4.986;4.982;4.978;4.974;4.970;4.966;4.963;4.960;4.956;4.953;4.950;4.946;4.942;4.939;4.935;4.932;4.928;4.925;4.921;4.918;4.915;4.912;4.908;4.905;4.901;4.898;4.894;4.891;4.887;4.884;4.880;4.877;4.874;4.871;4.868;4.864;4.861;4.858;4.855;4.852;4.849;4.846;4.842;4.839;4.836;4.833;4.830;4.827;4.825;4.822;4.819;4.816;4.812;4.808;4.804;4.800;4.798;4.797;4.796;4.795;4.794;4.792;4.789;4.787;4.785;4.783;4.780;4.778;4.776;4.774;4.771;4.769;4.767;4.765;4.764;4.763;4.761;4.760;4.758;4.756;4.754;4.753;4.751;4.749;4.748;4.746;4.744;4.743;4.742;4.740;2.797;2.779;2.768;2.758;2.750;2.744;2.738;2.734;2.730;2.727;2.723;2.720;2.718;2.715;2.711;2.707;2.709;2.711;2.716;2.701;2.695;2.696;2.697;2.697;2.693;2.692;2.693;2.694;2.691;2.689;2.689;2.690;2.691;2.694;2.697;2.699;2.702;2.705;2.708;2.711;2.715;2.718;2.721;2.725;2.730;2.735;2.742;2.750;2.764;2.788;2.822;4.717;4.717;4.717;4.718;4.718;4.719;4.720;4.720;4.721;4.722;4.723;4.724;4.725;4.726;4.727;4.728;4.729;4.730;4.731;4.732;4.733;4.734;4.735;4.736;4.738;4.739;4.740;4.741;4.743;4.744;4.746;4.748;4.750;4.752;4.754;4.755;4.757;4.759;4.761;4.763;4.765;4.767;4.768;4.770;4.772;4.774;4.776;4.778;4.780;4.782;4.784;4.786;4.788;4.791;4.793;4.795;4.798;4.801;4.803;4.806;4.809;4.811;4.814;4.816;4.819;4.822;4.824;4.827;4.830;4.833;4.836;4.839;4.842;4.845;4.848;4.851;4.854;4.857;4.860;4.863;4.866;4.869;4.872;4.875;4.878;4.881;4.884;4.887;4.891;4.894;4.898;4.901;4.904;4.908;4.911;4.915;4.918;4.922;4.925;4.929;4.933;4.937;4.940;4.945;4.949;4.953;4.957;4.961;4.965;4.969;4.972;4.976;4.980;4.983;4.987;4.991;4.994;4.998;5.002;5.007;5.011;5.015;5.019;5.023;5.028;5.032;5.036;5.041;5.045;5.050;5.054;5.059;5.063;5.068;5.072;5.077;5.082;5.086;5.091;5.096;5.100;5.105;5.110;5.114;5.119;5.124;5.128;5.133;5.137;5.142;5.147;5.152;5.157;5.162;5.168;5.173;5.178;5.184;5.189;5.194;5.199;5.204;5.209;5.214;5.219;5.224;5.230;5.236;5.242;5.248;5.254;5.260;5.267;5.273;5.279;5.285;5.292;5.298;5.304;5.310;5.317;5.323;5.329;5.335;5.341;5.347;5.353;5.360;5.366;5.372;5.378;5.385;5.391;5.397;5.404;5.410;5.416;5.422;5.428;5.435;5.441;5.447;5.454;5.460;5.466;5.473;5.479;5.485;5.492;5.498;5.505;5.512;5.518;5.525;5.532;5.539;5.545;5.552;5.559;5.565;5.572;5.578;5.585;5.591;5.598;5.604;5.611;5.617;5.624;5.630;5.637;5.644;5.651
5.651;5.643;5.636;5.628;5.621;5.614;5.607;5.600;5.594;5.587;5.580;5.574;5.567;5.560;5.553;5.546;5.539;5.532;5.525;5.518;5.511;5.504;5.497;5.491;5.484;5.478;5.472;5.465;5.459;5.452;5.446;5.440;5.433;5.427;5.421;5.415;5.409;5.404;5.398;5.392;5.386;5.380;5.374;5.368;5.363;5.357;5.351;5.345;5.340;5.334;5.328;5.323;5.317;5.311;5.305;5.299;5.294;5.288;5.282;5.276;5.270;5.265;5.259;5.253;5.247;5.242;5.236;5.230;5.225;5.219;5.214;5.208;5.203;5.197;5.192;5.186;5.181;5.175;5.170;5.164;5.159;5.154;5.149;5.144;5.139;5.133;5.128;5.123;5.117;5.112;5.107;5.102;5.097;5.091;5.086;5.081;5.076;5.072;5.067;5.062;5.057;5.052;5.048;5.043;5.038;5.034;5.029;5.025;5.020;5.016;5.011;5.006;5.002;4.997;4.993;4.988;4.983;4.979;4.975;4.970;4.966;4.962;4.958;4.954;4.950;4.947;4.943;4.939;4.935;4.932;4.928;4.925;4.922;4.918;4.914;4.911;4.907;4.904;4.900;4.897;4.893;4.890;4.887;4.884;4.880;4.876;4.873;4.870;4.866;4.863;4.860;4.856;4.853;4.850;4.847;4.843;4.840;4.837;4.833;4.830;4.827;4.824;4.821;4.818;4.814;4.811;4.808;4.805;4.802;4.799;4.796;4.793;4.791;4.788;4.785;4.783;4.780;4.777;4.774;4.771;4.768;4.767;4.766;4.763;4.761;4.758;4.756;4.754;4.751;4.749;4.747;4.744;4.742;4.740;4.738;4.736;4.734;4.733;4.731;4.730;4.729;4.728;4.726;4.724;4.723;4.721;4.719;4.717;4.715;4.714;4.712;4.711;4.709;2.801;2.782;2.771;2.762;2.754;2.747;2.742;2.737;2.733;2.730;2.727;2.724;2.722;2.720;2.717;2.711;2.714;2.712;2.722;2.721;2.703;2.701;2.701;2.701;2.699;2.696;2.696;2.698;2.697;2.694;2.693;2.694;2.695;2.698;2.700;2.703;2.705;2.708;2.711;2.715;2.718;2.721;2.725;2.728;2.733;2.738;2.744;2.752;2.765;2.790;2.829;4.687;4.687;4.688;4.688;4.689;4.689;4.690;4.691;4.692;4.692;4.693;4.694;4.695;4.696;4.697;4.698;4.699;4.700;4.701;4.702;4.703;4.704;4.705;4.706;4.707;4.709;4.710;4.711;4.712;4.714;4.716;4.718;4.720;4.722;4.723;4.725;4.727;4.729;4.731;4.733;4.734;4.736;4.738;4.740;4.742;4.744;4.746;4.748;4.750;4.752;4.754;4.756;4.759;4.761;4.764;4.766;4.769;4.771;4.773;4.776;4.778;4.781;4.783;4.786;4.788;4.791;4.794;4.796;4.799;4.802;4.805;4.808;4.811;4.814;4.817;4.820;4.823;4.826;4.829;4.832;4.835;4.838;4.841;4.844;4.846;4.849;4.852;4.856;4.859;4.863;4.866;4.869;4.873;4.876;4.879;4.883;4.886;4.890;4.893;4.897;4.901;4.904;4.908;4.912;4.916;4.920;4.924;4.928;4.932;4.936;4.941;4.944;4.948;4.952;4.955;4.959;4.963;4.967;4.970;4.975;4.979;4.983;4.987;4.992;4.996;5.000;5.005;5.009;5.013;5.018;5.022;5.027;5.031;5.036;5.040;5.045;5.050;5.054;5.059;5.064;5.069;5.073;5.078;5.083;5.087;5.092;5.096;5.101;5.106;5.110;5.115;5.120;5.125;5.130;5.135;5.140;5.145;5.151;5.156;5.161;5.167;5.172;5.177;5.182;5.187;5.193;5.198;5.204;5.209;5.216;5.222;5.228;5.234;5.240;5.247;5.253;5.259;5.265;5.271;5.277;5.284;5.290;5.296;5.302;5.309;5.315;5.321;5.327;5.333;5.339;5.346;5.352;5.358;5.364;5.371;5.377;5.383;5.389;5.395;5.401;5.407;5.414;5.420;5.426;5.432;5.438;5.445;5.451;5.457;5.463;5.470;5.476;5.483;5.490;5.496;5.503;5.510;5.517;5.523;5.530;5.536;5.543;5.549;5.556;5.562;5.569;5.575;5.582;5.588;5.595;5.602;5.608;5.615
5.614;5.606;5.599;5.593;5.586;5.579;5.572;5.566;5.559;5.552;5.546;5.539;5.533;5.525;5.518;5.511;5.504;5.496;5.489;5.483;5.476;5.470;5.463;5.457;5.450;5.443;5.437;5.431;5.424;5.418;5.412;5.405;5.399;5.393;5.387;5.381;5.375;5.369;5.365;5.359;5.353;5.347;5.340;5.335;5.329;5.324;5.318;5.313;5.307;5.301;5.296;5.290;5.284;5.278;5.273;5.267;5.261;5.255;5.250;5.244;5.238;5.232;5.226;5.220;5.215;5.209;5.203;5.197;5.192;5.186;5.181;5.175;5.170;5.164;5.159;5.153;5.148;5.142;5.137;5.132;5.127;5.121;5.116;5.111;5.106;5.100;5.095;5.090;5.085;5.079;5.074;5.069;5.064;5.059;5.054;5.049;5.044;5.039;5.034;5.030;5.025;5.020;5.016;5.011;5.006;5.002;4.997;4.992;4.988;4.983;4.979;4.974;4.970;4.965;4.961;4.956;4.952;4.948;4.944;4.939;4.936;4.932;4.928;4.924;4.920;4.916;4.912;4.908;4.905;4.901;4.898;4.894;4.891;4.887;4.883;4.880;4.876;4.873;4.869;4.866;4.863;4.859;4.856;4.853;4.849;4.846;4.843;4.839;4.836;4.833;4.829;4.826;4.823;4.819;4.816;4.813;4.809;4.806;4.803;4.800;4.796;4.793;4.790;4.787;4.784;4.781;4.778;4.775;4.772;4.769;4.766;4.763;4.760;4.757;4.755;4.752;4.750;4.747;4.745;4.742;4.740;4.738;4.735;4.733;4.731;4.728;4.726;4.723;4.721;4.719;4.717;4.714;4.712;4.710;4.708;4.706;4.704;4.703;4.701;4.700;4.699;4.698;4.696;4.694;4.692;4.690;4.688;4.686;4.685;4.683;4.682;4.681;4.679;2.804;2.785;2.774;2.765;2.757;2.750;2.745;2.740;2.736;2.733;2.730;2.728;2.725;2.723;2.722;2.717;2.716;2.723;2.718;2.731;2.715;2.707;2.707;2.706;2.705;2.700;2.700;2.702;2.703;2.701;2.698;2.698;2.700;2.702;2.704;2.707;2.709;2.712;2.715;2.718;2.721;2.724;2.727;2.731;2.735;2.740;2.746;2.754;2.765;2.790;2.836;4.658;4.658;4.659;4.659;4.660;4.660;4.661;4.662;4.663;4.663;4.664;4.665;4.666;4.667;4.668;4.669;4.670;4.671;4.671;4.672;4.673;4.674;4.675;4.677;4.678;4.679;4.680;4.681;4.683;4.685;4.686;4.688;4.690;4.692;4.694;4.696;4.697;4.699;4.701;4.702;4.704;4.706;4.708;4.709;4.711;4.713;4.715;4.718;4.721;4.723;4.726;4.728;4.730;4.732;4.735;4.737;4.739;4.741;4.743;4.745;4.748;4.750;4.753;4.755;4.758;4.761;4.763;4.766;4.769;4.772;4.775;4.778;4.781;4.783;4.787;4.790;4.793;4.796;4.798;4.801;4.804;4.807;4.810;4.813;4.816;4.818;4.821;4.825;4.828;4.831;4.835;4.838;4.841;4.844;4.848;4.851;4.855;4.858;4.862;4.866;4.869;4.873;4.876;4.880;4.884;4.888;4.892;4.896;4.900;4.904;4.908;4.912;4.916;4.921;4.924;4.928;4.932;4.935;4.939;4.943;4.947;4.951;4.956;4.960;4.964;4.969;4.973;4.978;4.982;4.986;4.991;4.995;5.000;5.004;5.009;5.014;5.018;5.023;5.028;5.032;5.037;5.042;5.047;5.051;5.056;5.061;5.065;5.070;5.074;5.079;5.083;5.088;5.093;5.097;5.103;5.108;5.113;5.118;5.124;5.129;5.134;5.140;5.145;5.151;5.156;5.162;5.168;5.173;5.179;5.184;5.190;5.196;5.202;5.208;5.214;5.220;5.226;5.232;5.239;5.245;5.251;5.257;5.263;5.270;5.276;5.282;5.289;5.295;5.301;5.307;5.313;5.320;5.326;5.332;5.338;5.345;5.351;5.357;5.363;5.369;5.374;5.380;5.386;5.392;5.398;5.404;5.411;5.417;5.423;5.430;5.436;5.442;5.448;5.455;5.462;5.468;5.475;5.482;5.488;5.495;5.501;5.508;5.514;5.521;5.528;5.534;5.541;5.547;5.554;5.560;5.567;5.573;5.580
5.579;5.572;5.565;5.559;5.552;5.545;5.539;5.532;5.525;5.519;5.512;5.505;5.497;5.490;5.483;5.476;5.468;5.462;5.455;5.449;5.442;5.436;5.429;5.422;5.416;5.409;5.403;5.397;5.390;5.384;5.378;5.372;5.365;5.359;5.353;5.348;5.343;5.338;5.333;5.326;5.320;5.314;5.308;5.302;5.296;5.290;5.285;5.279;5.273;5.268;5.262;5.257;5.251;5.245;5.239;5.233;5.228;5.222;5.216;5.210;5.205;5.199;5.193;5.187;5.181;5.176;5.170;5.165;5.159;5.153;5.148;5.142;5.137;5.131;5.126;5.121;5.115;5.110;5.105;5.100;5.094;5.089;5.084;5.078;5.073;5.068;5.062;5.057;5.052;5.047;5.042;5.036;5.032;5.027;5.022;5.017;5.012;5.007;5.003;4.998;4.993;4.988;4.984;4.979;4.974;4.970;4.965;4.961;4.956;4.952;4.947;4.943;4.938;4.934;4.929;4.925;4.921;4.917;4.913;4.909;4.905;4.901;4.897;4.893;4.889;4.886;4.882;4.878;4.875;4.871;4.867;4.864;4.860;4.856;4.853;4.849;4.846;4.842;4.839;4.836;4.832;4.829;4.826;4.823;4.819;4.816;4.812;4.809;4.806;4.802;4.799;4.796;4.793;4.789;4.786;4.783;4.779;4.776;4.773;4.770;4.766;4.763;4.760;4.757;4.754;4.751;4.747;4.744;4.741;4.738;4.735;4.733;4.730;4.727;4.725;4.722;4.720;4.717;4.715;4.712;4.710;4.707;4.705;4.702;4.700;4.698;4.696;4.694;4.692;4.690;4.687;4.685;4.683;4.681;4.679;4.677;4.676;4.674;4.673;4.671;4.669;4.667;4.665;4.663;4.661;4.660;4.658;4.656;4.655;4.653;4.652;4.651;4.649;2.808;2.789;2.778;2.768;2.760;2.753;2.748;2.744;2.740;2.736;2.733;2.731;2.729;2.727;2.725;2.724;2.719;2.724;2.722;2.736;2.740;2.723;2.715;2.711;2.710;2.707;2.703;2.705;2.707;2.707;2.705;2.704;2.704;2.706;2.708;2.710;2.713;2.715;2.718;2.721;2.724;2.727;2.730;2.734;2.739;2.744;2.749;2.756;2.765;2.787;2.844;4.629;4.630;4.630;4.631;4.631;4.632;4.632;4.633;4.634;4.635;4.635;4.636;4.637;4.638;4.639;4.640;4.641;4.642;4.643;4.644;4.644;4.645;4.646;4.647;4.648;4.650;4.651;4.652;4.654;4.655;4.657;4.659;4.661;4.662;4.664;4.666;4.667;4.669;4.670;4.672;4.674;4.676;4.677;4.679;4.681;4.684;4.687;4.689;4.692;4.695;4.697;4.699;4.701;4.703;4.705;4.707;4.709;4.711;4.713;4.716;4.718;4.720;4.723;4.726;4.728;4.731;4.734;4.736;4.739;4.742;4.745;4.748;4.751;4.754;4.757;4.760;4.762;4.765;4.768;4.771;4.773;4.776;4.779;4.782;4.785;4.788;4.791;4.794;4.797;4.801;4.804;4.807;4.811;4.814;4.818;4.821;4.824;4.828;4.831;4.835;4.839;4.842;4.846;4.850;4.853;4.857;4.861;4.864;4.868;4.872;4.876;4.880;4.884;4.888;4.893;4.897;4.901;4.905;4.908;4.912;4.916;4.920;4.924;4.929;4.933;4.937;4.942;4.946;4.951;4.955;4.959;4.964;4.968;4.973;4.977;4.982;4.987;4.991;4.996;5.001;5.006;5.011;5.015;5.020;5.025;5.030;5.034;5.039;5.043;5.048;5.052;5.057;5.061;5.066;5.071;5.076;5.081;5.086;5.091;5.097;5.102;5.108;5.113;5.119;5.124;5.130;5.135;5.141;5.147;5.153;5.158;5.164;5.170;5.176;5.182;5.188;5.194;5.200;5.206;5.212;5.218;5.224;5.231;5.237;5.243;5.249;5.256;5.263;5.269;5.275;5.281;5.287;5.294;5.300;5.306;5.312;5.319;5.325;5.331;5.336;5.342;5.348;5.353;5.359;5.365;5.371;5.377;5.383;5.390;5.396;5.402;5.409;5.415;5.421;5.428;5.434;5.441;5.447;5.454;5.460;5.467;5.473;5.480;5.486;5.493;5.500;5.506;5.513;5.519;5.526;5.532;5.539;5.545
5.546;5.539;5.532;5.526;5.519;5.512;5.504;5.497;5.490;5.483;5.476;5.469;5.462;5.455;5.448;5.441;5.434;5.427;5.420;5.413;5.406;5.400;5.393;5.387;5.380;5.374;5.368;5.361;5.355;5.349;5.343;5.337;5.332;5.327;5.322;5.317;5.312;5.307;5.300;5.294;5.288;5.282;5.276;5.270;5.264;5.258;5.252;5.246;5.241;5.235;5.229;5.224;5.218;5.212;5.206;5.200;5.195;5.189;5.183;5.178;5.172;5.166;5.160;5.155;5.149;5.143;5.138;5.132;5.127;5.121;5.116;5.110;5.105;5.099;5.094;5.088;5.083;5.078;5.073;5.067;5.062;5.057;5.051;5.046;5.041;5.036;5.030;5.025;5.020;5.015;5.010;5.005;5.000;4.995;4.990;4.985;4.980;4.976;4.971;4.966;4.961;4.957;4.952;4.947;4.943;4.938;4.934;4.929;4.925;4.920;4.916;4.911;4.907;4.903;4.899;4.895;4.891;4.887;4.883;4.879;4.875;4.871;4.867;4.863;4.859;4.856;4.852;4.848;4.845;4.841;4.838;4.834;4.830;4.827;4.823;4.819;4.816;4.812;4.809;4.806;4.802;4.799;4.796;4.793;4.789;4.786;4.783;4.779;4.776;4.773;4.769;4.766;4.763;4.759;4.756;4.753;4.750;4.746;4.743;4.740;4.737;4.734;4.731;4.728;4.724;4.721;4.718;4.715;4.711;4.708;4.706;4.703;4.700;4.697;4.695;4.692;4.690;4.687;4.685;4.682;4.680;4.677;4.675;4.672;4.670;4.668;4.666;4.664;4.662;4.660;4.658;4.656;4.654;4.652;4.650;4.648;4.646;4.644;4.642;4.640;4.638;4.637;4.635;4.633;4.632;4.630;4.629;4.627;4.626;4.624;4.623;4.621;4.620;2.813;2.793;2.781;2.772;2.763;2.756;2.751;2.747;2.743;2.740;2.737;2.734;2.732;2.730;2.729;2.728;2.725;2.724;2.733;2.726;2.746;2.746;2.731;2.721;2.716;2.713;2.708;2.708;2.711;2.712;2.711;2.710;2.709;2.710;2.712;2.714;2.717;2.719;2.722;2.724;2.727;2.730;2.733;2.737;2.742;2.747;2.753;2.759;2.767;2.782;2.852;4.600;4.601;4.601;4.602;4.602;4.603;4.604;4.605;4.605;4.606;4.607;4.607;4.608;4.609;4.610;4.611;4.612;4.613;4.614;4.615;4.616;4.617;4.618;4.619;4.620;4.621;4.622;4.623;4.625;4.626;4.628;4.630;4.631;4.633;4.634;4.636;4.638;4.639;4.641;4.643;4.644;4.646;4.648;4.650;4.653;4.656;4.658;4.661;4.663;4.665;4.667;4.669;4.671;4.673;4.675;4.677;4.680;4.682;4.684;4.686;4.689;4.691;4.694;4.696;4.699;4.701;4.704;4.707;4.710;4.712;4.715;4.718;4.721;4.724;4.727;4.730;4.732;4.735;4.738;4.740;4.743;4.746;4.749;4.752;4.755;4.758;4.761;4.765;4.768;4.771;4.775;4.778;4.781;4.785;4.788;4.791;4.794;4.797;4.801;4.805;4.808;4.812;4.816;4.819;4.823;4.827;4.830;4.834;4.838;4.841;4.845;4.849;4.853;4.857;4.861;4.865;4.869;4.874;4.878;4.882;4.886;4.890;4.894;4.898;4.902;4.906;4.911;4.915;4.919;4.924;4.928;4.932;4.937;4.941;4.946;4.950;4.955;4.960;4.964;4.969;4.974;4.979;4.983;4.988;4.993;4.997;5.002;5.007;5.011;5.016;5.021;5.026;5.031;5.035;5.040;5.045;5.049;5.054;5.060;5.065;5.071;5.076;5.081;5.087;5.092;5.098;5.104;5.109;5.115;5.121;5.126;5.132;5.138;5.144;5.150;5.156;5.162;5.168;5.174;5.180;5.186;5.192;5.198;5.204;5.210;5.217;5.223;5.230;5.237;5.243;5.249;5.255;5.262;5.267;5.273;5.279;5.285;5.291;5.297;5.304;5.309;5.315;5.321;5.327;5.333;5.338;5.344;5.350;5.356;5.363;5.369;5.375;5.382;5.388;5.394;5.401;5.407;5.413;5.420;5.427;5.433;5.439;5.446;5.452;5.459;5.465;5.472;5.478;5.485;5.492;5.498;5.505;5.511
5.512;5.505;5.498;5.491;5.484;5.476;5.469;5.462;5.455;5.448;5.441;5.434;5.427;5.421;5.414;5.406;5.399;5.392;5.385;5.378;5.371;5.365;5.359;5.353;5.347;5.341;5.335;5.329;5.323;5.317;5.311;5.306;5.301;5.296;5.292;5.286;5.280;5.274;5.268;5.262;5.256;5.250;5.244;5.238;5.232;5.226;5.220;5.214;5.208;5.202;5.197;5.191;5.185;5.179;5.173;5.168;5.162;5.156;5.151;5.145;5.139;5.134;5.128;5.122;5.117;5.111;5.106;5.100;5.095;5.089;5.084;5.078;5.073;5.068;5.062;5.057;5.052;5.046;5.041;5.035;5.030;5.025;5.020;5.014;5.009;5.004;4.999;4.994;4.988;4.983;4.978;4.973;4.968;4.963;4.959;4.954;4.949;4.944;4.939;4.935;4.930;4.925;4.921;4.916;4.912;4.907;4.903;4.898;4.894;4.889;4.885;4.881;4.877;4.873;4.869;4.865;4.861;4.857;4.853;4.849;4.845;4.841;4.838;4.834;4.830;4.826;4.823;4.819;4.815;4.812;4.808;4.805;4.801;4.798;4.794;4.790;4.787;4.783;4.780;4.776;4.773;4.770;4.766;4.763;4.760;4.757;4.753;4.750;4.747;4.743;4.740;4.737;4.733;4.730;4.727;4.724;4.720;4.717;4.714;4.711;4.708;4.705;4.702;4.699;4.695;4.692;4.689;4.686;4.682;4.679;4.676;4.673;4.671;4.668;4.665;4.663;4.660;4.658;4.655;4.652;4.650;4.647;4.645;4.643;4.640;4.638;4.636;4.634;4.632;4.631;4.629;4.627;4.625;4.623;4.622;4.618;4.616;4.614;4.612;4.610;4.609;4.607;4.606;4.605;4.603;4.602;4.600;4.599;4.597;4.596;4.594;4.593;4.591;2.818;2.797;2.785;2.775;2.766;2.759;2.754;2.750;2.746;2.743;2.740;2.737;2.735;2.733;2.732;2.731;2.730;2.726;2.734;2.732;2.734;2.754;2.753;2.737;2.722;2.720;2.715;2.712;2.714;2.717;2.716;2.715;2.714;2.715;2.716;2.719;2.721;2.724;2.726;2.728;2.731;2.734;2.737;2.741;2.746;2.751;2.757;2.763;2.770;2.782;4.572;4.572;4.573;4.573;4.574;4.574;4.575;4.575;4.576;4.577;4.578;4.578;4.579;4.580;4.581;4.582;4.583;4.584;4.585;4.586;4.587;4.588;4.589;4.590;4.591;4.592;4.593;4.593;4.594;4.596;4.598;4.599;4.601;4.602;4.604;4.605;4.607;4.608;4.610;4.612;4.613;4.615;4.617;4.620;4.622;4.625;4.627;4.630;4.632;4.634;4.636;4.638;4.640;4.642;4.644;4.646;4.648;4.650;4.653;4.655;4.657;4.659;4.662;4.664;4.667;4.670;4.672;4.675;4.678;4.681;4.683;4.686;4.689;4.692;4.695;4.697;4.700;4.702;4.705;4.708;4.710;4.713;4.716;4.719;4.723;4.726;4.729;4.732;4.735;4.739;4.742;4.745;4.749;4.752;4.755;4.758;4.761;4.764;4.768;4.771;4.775;4.778;4.782;4.786;4.790;4.793;4.797;4.800;4.804;4.807;4.811;4.815;4.819;4.822;4.826;4.830;4.834;4.838;4.843;4.847;4.851;4.855;4.860;4.863;4.867;4.872;4.876;4.880;4.884;4.889;4.893;4.897;4.902;4.906;4.910;4.915;4.919;4.924;4.928;4.933;4.938;4.942;4.947;4.952;4.956;4.961;4.965;4.969;4.974;4.979;4.983;4.988;4.993;4.998;5.003;5.008;5.013;5.018;5.023;5.029;5.034;5.039;5.045;5.050;5.056;5.061;5.067;5.072;5.078;5.083;5.089;5.095;5.100;5.106;5.112;5.118;5.124;5.130;5.136;5.142;5.148;5.154;5.160;5.166;5.172;5.178;5.184;5.191;5.198;5.205;5.211;5.217;5.223;5.229;5.235;5.240;5.246;5.252;5.258;5.264;5.270;5.276;5.282;5.288;5.294;5.300;5.306;5.312;5.318;5.324;5.330;5.336;5.342;5.349;5.355;5.361;5.367;5.374;5.380;5.387;5.393;5.399;5.406;5.412;5.419;5.425;5.432;5.438;5.445;5.451;5.458;5.464;5.471;5.478
5.478;5.471;5.464;5.457;5.450;5.442;5.435;5.428;5.421;5.415;5.408;5.401;5.394;5.387;5.380;5.372;5.365;5.358;5.352;5.345;5.338;5.332;5.326;5.320;5.314;5.308;5.303;5.297;5.291;5.286;5.281;5.276;5.271;5.266;5.260;5.254;5.248;5.242;5.236;5.230;5.224;5.218;5.212;5.206;5.200;5.194;5.188;5.182;5.176;5.170;5.164;5.159;5.153;5.147;5.141;5.136;5.130;5.124;5.119;5.113;5.107;5.102;5.096;5.090;5.085;5.079;5.074;5.068;5.063;5.058;5.052;5.047;5.042;5.036;5.031;5.025;5.020;5.015;5.009;5.004;4.999;4.994;4.988;4.983;4.978;4.973;4.968;4.963;4.957;4.952;4.947;4.942;4.937;4.932;4.927;4.923;4.918;4.913;4.909;4.904;4.899;4.895;4.890;4.886;4.881;4.877;4.873;4.869;4.864;4.860;4.856;4.851;4.847;4.843;4.839;4.835;4.831;4.827;4.823;4.820;4.817;4.813;4.809;4.805;4.801;4.797;4.794;4.790;4.786;4.783;4.779;4.776;4.772;4.769;4.765;4.762;4.758;4.755;4.751;4.748;4.744;4.741;4.737;4.734;4.731;4.728;4.724;4.721;4.717;4.714;4.711;4.708;4.704;4.701;4.698;4.695;4.691;4.688;4.685;4.682;4.679;4.676;4.673;4.670;4.667;4.663;4.660;4.657;4.654;4.651;4.648;4.645;4.642;4.639;4.636;4.633;4.631;4.628;4.626;4.623;4.621;4.618;4.616;4.613;4.611;4.609;4.607;4.606;4.604;4.602;4.600;4.598;4.596;4.595;4.593;4.591;4.587;4.585;4.584;4.582;4.581;4.580;4.578;4.577;4.575;4.574;4.572;4.570;4.569;4.567;4.565;4.564;4.562;2.822;2.802;2.789;2.779;2.770;2.762;2.757;2.752;2.749;2.746;2.743;2.740;2.738;2.736;2.735;2.734;2.734;2.729;2.734;2.738;2.734;2.761;2.764;2.788;2.731;2.726;2.722;2.718;2.717;2.720;2.721;2.720;2.719;2.719;2.721;2.723;2.725;2.728;2.730;2.732;2.735;2.738;2.741;2.745;2.750;2.755;2.761;2.767;2.774;2.784;4.544;4.545;4.545;4.545;4.546;4.546;4.547;4.547;4.548;4.549;4.549;4.550;4.551;4.552;4.553;4.554;4.555;4.556;4.557;4.558;4.559;4.560;4.561;4.562;4.563;4.563;4.564;4.565;4.566;4.568;4.569;4.570;4.572;4.573;4.575;4.576;4.578;4.580;4.581;4.583;4.584;4.587;4.589;4.592;4.594;4.597;4.599;4.602;4.604;4.605;4.607;4.609;4.611;4.613;4.615;4.617;4.619;4.622;4.624;4.626;4.628;4.631;4.633;4.635;4.638;4.640;4.643;4.646;4.648;4.651;4.654;4.657;4.660;4.662;4.665;4.668;4.670;4.673;4.675;4.678;4.681;4.684;4.687;4.690;4.693;4.696;4.699;4.703;4.706;4.710;4.713;4.716;4.720;4.723;4.726;4.729;4.732;4.735;4.738;4.742;4.745;4.749;4.753;4.756;4.760;4.763;4.767;4.770;4.774;4.778;4.781;4.785;4.789;4.792;4.796;4.800;4.804;4.808;4.812;4.816;4.821;4.825;4.829;4.833;4.837;4.841;4.846;4.850;4.854;4.858;4.863;4.867;4.871;4.876;4.880;4.884;4.889;4.893;4.898;4.902;4.907;4.911;4.916;4.920;4.925;4.929;4.934;4.938;4.943;4.947;4.952;4.957;4.962;4.967;4.972;4.977;4.982;4.988;4.993;4.998;5.003;5.009;5.014;5.020;5.025;5.030;5.036;5.041;5.047;5.052;5.058;5.063;5.069;5.074;5.080;5.086;5.092;5.098;5.104;5.110;5.116;5.122;5.128;5.134;5.140;5.147;5.153;5.159;5.166;5.172;5.179;5.185;5.191;5.196;5.202;5.208;5.214;5.220;5.226;5.232;5.238;5.244;5.250;5.256;5.262;5.268;5.274;5.280;5.286;5.292;5.298;5.304;5.310;5.316;5.322;5.328;5.335;5.341;5.347;5.353;5.360;5.366;5.373;5.379;5.386;5.392;5.399;5.405;5.412;5.418;5.425;5.431;5.438;5.444
5.444;5.437;5.430;5.423;5.416;5.409;5.402;5.395;5.388;5.381;5.374;5.367;5.360;5.353;5.346;5.339;5.333;5.326;5.320;5.313;5.307;5.301;5.295;5.289;5.283;5.277;5.272;5.267;5.262;5.257;5.251;5.246;5.240;5.234;5.228;5.222;5.216;5.210;5.204;5.198;5.192;5.186;5.180;5.174;5.168;5.162;5.156;5.150;5.144;5.138;5.133;5.127;5.121;5.115;5.110;5.104;5.098;5.093;5.087;5.081;5.076;5.070;5.065;5.059;5.054;5.048;5.043;5.038;5.032;5.027;5.022;5.017;5.011;5.006;5.000;4.995;4.989;4.984;4.979;4.973;4.968;4.963;4.958;4.952;4.947;4.942;4.937;4.932;4.927;4.922;4.917;4.912;4.907;4.902;4.897;4.893;4.888;4.884;4.880;4.875;4.871;4.866;4.862;4.858;4.853;4.849;4.844;4.840;4.835;4.831;4.826;4.822;4.818;4.814;4.810;4.806;4.803;4.799;4.796;4.792;4.788;4.784;4.780;4.776;4.772;4.768;4.765;4.761;4.758;4.754;4.751;4.747;4.744;4.740;4.737;4.733;4.730;4.726;4.723;4.719;4.716;4.713;4.709;4.706;4.702;4.699;4.695;4.692;4.689;4.685;4.682;4.679;4.676;4.673;4.669;4.666;4.663;4.660;4.657;4.654;4.650;4.647;4.644;4.641;4.638;4.635;4.632;4.629;4.625;4.622;4.619;4.616;4.613;4.611;4.608;4.605;4.602;4.599;4.597;4.594;4.592;4.589;4.587;4.585;4.582;4.580;4.579;4.577;4.575;4.573;4.571;4.570;4.568;4.566;4.564;4.563;4.561;4.559;4.556;4.555;4.553;4.552;4.550;4.549;4.547;4.545;4.543;4.541;4.540;4.538;4.536;4.535;4.534;2.827;2.808;2.793;2.782;2.773;2.765;2.760;2.755;2.752;2.749;2.747;2.744;2.742;2.739;2.738;2.738;2.738;2.735;2.734;2.740;2.739;2.744;2.782;2.791;2.740;2.733;2.729;2.725;2.722;2.723;2.725;2.724;2.724;2.725;2.725;2.727;2.729;2.732;2.735;2.737;2.739;2.742;2.746;2.749;2.754;2.759;2.765;2.772;2.779;2.788;4.516;4.517;4.517;4.518;4.518;4.519;4.519;4.520;4.520;4.521;4.522;4.522;4.523;4.524;4.525;4.526;4.527;4.528;4.529;4.530;4.531;4.532;4.533;4.534;4.534;4.535;4.536;4.537;4.538;4.539;4.541;4.542;4.543;4.545;4.546;4.548;4.549;4.551;4.553;4.554;4.556;4.559;4.561;4.564;4.566;4.569;4.571;4.573;4.575;4.577;4.579;4.581;4.583;4.585;4.587;4.589;4.591;4.593;4.595;4.598;4.600;4.602;4.604;4.607;4.609;4.612;4.614;4.617;4.619;4.622;4.625;4.628;4.630;4.633;4.636;4.638;4.641;4.644;4.646;4.649;4.652;4.655;4.658;4.661;4.664;4.667;4.670;4.673;4.676;4.680;4.683;4.687;4.690;4.694;4.697;4.700;4.703;4.706;4.709;4.712;4.716;4.720;4.723;4.727;4.730;4.734;4.737;4.741;4.744;4.748;4.752;4.756;4.759;4.763;4.767;4.771;4.775;4.779;4.783;4.787;4.791;4.795;4.799;4.803;4.808;4.812;4.816;4.820;4.824;4.829;4.833;4.837;4.842;4.846;4.850;4.855;4.859;4.863;4.868;4.872;4.877;4.881;4.886;4.891;4.895;4.900;4.905;4.909;4.914;4.918;4.923;4.927;4.932;4.937;4.942;4.947;4.952;4.957;4.962;4.968;4.973;4.978;4.984;4.989;4.995;5.000;5.005;5.011;5.016;5.022;5.027;5.033;5.038;5.043;5.049;5.054;5.060;5.066;5.072;5.079;5.085;5.091;5.097;5.103;5.109;5.115;5.121;5.127;5.134;5.140;5.146;5.152;5.158;5.165;5.171;5.176;5.182;5.188;5.194;5.200;5.206;5.212;5.217;5.223;5.229;5.235;5.241;5.247;5.253;5.259;5.266;5.272;5.278;5.284;5.290;5.296;5.302;5.308;5.314;5.321;5.327;5.333;5.339;5.346;5.352;5.359;5.366;5.372;5.379;5.386;5.392;5.399;5.405;5.412
5.411;5.404;5.397;5.390;5.383;5.376;5.369;5.362;5.355;5.348;5.341;5.334;5.327;5.321;5.315;5.308;5.301;5.294;5.288;5.281;5.275;5.269;5.263;5.258;5.252;5.247;5.242;5.237;5.232;5.226;5.220;5.214;5.209;5.203;5.197;5.191;5.185;5.179;5.173;5.166;5.160;5.154;5.148;5.142;5.136;5.130;5.124;5.119;5.113;5.107;5.101;5.095;5.090;5.084;5.078;5.073;5.067;5.061;5.056;5.050;5.045;5.039;5.034;5.029;5.023;5.018;5.013;5.008;5.003;4.997;4.992;4.986;4.981;4.975;4.970;4.964;4.959;4.953;4.948;4.943;4.938;4.932;4.927;4.922;4.917;4.913;4.908;4.904;4.899;4.895;4.890;4.885;4.880;4.875;4.870;4.865;4.861;4.856;4.852;4.847;4.843;4.839;4.834;4.830;4.825;4.821;4.816;4.812;4.807;4.803;4.798;4.794;4.790;4.785;4.781;4.778;4.774;4.771;4.768;4.764;4.760;4.756;4.751;4.747;4.744;4.740;4.736;4.733;4.729;4.726;4.723;4.719;4.716;4.712;4.709;4.705;4.702;4.698;4.695;4.691;4.688;4.684;4.681;4.677;4.674;4.670;4.667;4.664;4.660;4.657;4.654;4.651;4.648;4.644;4.641;4.638;4.635;4.632;4.629;4.625;4.622;4.619;4.616;4.613;4.610;4.607;4.604;4.601;4.598;4.594;4.591;4.588;4.586;4.583;4.580;4.577;4.574;4.572;4.569;4.566;4.564;4.561;4.559;4.556;4.554;4.552;4.551;4.549;4.547;4.545;4.543;4.542;4.540;4.538;4.536;4.535;4.533;4.532;4.530;4.527;4.526;4.524;4.523;4.521;4.519;4.517;4.515;4.513;4.511;4.509;4.508;4.507;4.506;2.832;2.814;2.797;2.786;2.776;2.769;2.763;2.758;2.755;2.752;2.750;2.747;2.745;2.743;2.742;2.743;2.743;2.742;2.738;2.741;2.742;2.745;2.779;2.793;2.750;2.741;2.736;2.732;2.728;2.726;2.728;2.728;2.728;2.730;2.731;2.732;2.734;2.737;2.739;2.742;2.744;2.747;2.750;2.754;2.758;2.764;2.770;2.776;2.784;2.792;2.807;4.489;4.489;4.490;4.490;4.490;4.491;4.492;4.492;4.493;4.494;4.495;4.496;4.496;4.497;4.498;4.499;4.500;4.501;4.502;4.503;4.504;4.505;4.505;4.506;4.507;4.508;4.509;4.511;4.512;4.513;4.514;4.516;4.517;4.518;4.520;4.521;4.523;4.525;4.527;4.529;4.531;4.534;4.536;4.538;4.540;4.542;4.544;4.546;4.548;4.551;4.553;4.555;4.557;4.559;4.561;4.563;4.565;4.567;4.570;4.572;4.574;4.576;4.579;4.581;4.584;4.586;4.589;4.591;4.593;4.596;4.599;4.601;4.604;4.607;4.610;4.612;4.615;4.618;4.621;4.624;4.627;4.630;4.633;4.636;4.639;4.642;4.645;4.648;4.651;4.654;4.657;4.661;4.664;4.668;4.671;4.674;4.677;4.680;4.684;4.687;4.691;4.694;4.698;4.701;4.705;4.708;4.712;4.716;4.719;4.723;4.727;4.731;4.735;4.738;4.742;4.746;4.750;4.754;4.758;4.762;4.766;4.770;4.774;4.778;4.783;4.787;4.791;4.795;4.800;4.804;4.808;4.812;4.817;4.821;4.825;4.830;4.834;4.839;4.843;4.847;4.852;4.856;4.861;4.865;4.870;4.875;4.879;4.884;4.889;4.894;4.898;4.903;4.908;4.912;4.917;4.922;4.927;4.932;4.938;4.943;4.948;4.954;4.959;4.965;4.970;4.975;4.981;4.986;4.992;4.997;5.002;5.008;5.013;5.018;5.024;5.029;5.035;5.041;5.047;5.053;5.059;5.065;5.071;5.078;5.084;5.090;5.096;5.102;5.108;5.114;5.120;5.126;5.133;5.139;5.145;5.151;5.157;5.162;5.168;5.174;5.180;5.186;5.192;5.198;5.204;5.210;5.216;5.221;5.227;5.233;5.239;5.245;5.251;5.258;5.264;5.270;5.276;5.282;5.288;5.294;5.300;5.307;5.313;5.319;5.326;5.332;5.339;5.346;5.352;5.359;5.366;5.373;5.380
5.379;5.372;5.365;5.357;5.350;5.343;5.336;5.329;5.322;5.316;5.310;5.303;5.297;5.290;5.283;5.277;5.270;5.263;5.256;5.250;5.244;5.239;5.233;5.228;5.223;5.218;5.212;5.207;5.201;5.195;5.189;5.184;5.178;5.172;5.165;5.159;5.153;5.147;5.141;5.135;5.129;5.123;5.117;5.111;5.105;5.099;5.093;5.088;5.082;5.076;5.070;5.065;5.059;5.053;5.048;5.042;5.036;5.031;5.025;5.020;5.015;5.010;5.004;4.999;4.993;4.988;4.983;4.978;4.973;4.967;4.961;4.956;4.950;4.945;4.939;4.934;4.929;4.924;4.920;4.915;4.910;4.906;4.901;4.896;4.892;4.887;4.883;4.878;4.874;4.869;4.864;4.859;4.854;4.849;4.843;4.838;4.833;4.829;4.824;4.820;4.815;4.811;4.806;4.802;4.797;4.793;4.788;4.784;4.779;4.775;4.770;4.766;4.762;4.757;4.753;4.749;4.745;4.742;4.739;4.735;4.732;4.727;4.723;4.719;4.716;4.712;4.709;4.705;4.701;4.698;4.695;4.691;4.688;4.685;4.681;4.677;4.674;4.670;4.667;4.663;4.659;4.656;4.652;4.649;4.645;4.642;4.639;4.635;4.632;4.629;4.626;4.623;4.620;4.617;4.613;4.610;4.607;4.604;4.601;4.598;4.595;4.592;4.589;4.585;4.582;4.579;4.576;4.573;4.570;4.567;4.564;4.561;4.558;4.555;4.553;4.550;4.547;4.544;4.542;4.539;4.536;4.534;4.532;4.529;4.527;4.525;4.523;4.521;4.519;4.518;4.516;4.514;4.512;4.511;4.509;4.507;4.506;4.504;4.502;4.501;4.499;4.497;4.496;4.494;4.492;4.490;4.488;4.486;4.484;4.482;4.481;4.480;4.479;2.837;2.820;2.803;2.790;2.780;2.772;2.767;2.762;2.758;2.756;2.753;2.751;2.748;2.746;2.745;2.747;2.748;2.749;2.746;2.744;2.745;2.749;2.756;2.789;2.759;2.749;2.744;2.739;2.735;2.731;2.731;2.732;2.733;2.735;2.736;2.737;2.739;2.741;2.744;2.746;2.749;2.751;2.755;2.758;2.762;2.768;2.774;2.781;2.789;2.797;2.809;4.461;4.461;4.462;4.462;4.463;4.463;4.464;4.465;4.465;4.466;4.468;4.468;4.469;4.470;4.471;4.471;4.472;4.473;4.474;4.475;4.476;4.477;4.478;4.479;4.479;4.480;4.482;4.484;4.485;4.487;4.488;4.489;4.490;4.491;4.493;4.494;4.495;4.497;4.499;4.501;4.503;4.505;4.507;4.509;4.511;4.513;4.515;4.518;4.520;4.522;4.524;4.527;4.529;4.531;4.533;4.536;4.538;4.540;4.542;4.544;4.547;4.549;4.551;4.554;4.556;4.559;4.561;4.563;4.566;4.568;4.571;4.573;4.576;4.579;4.581;4.584;4.587;4.590;4.593;4.596;4.599;4.602;4.605;4.608;4.611;4.614;4.617;4.620;4.623;4.626;4.629;4.632;4.636;4.639;4.642;4.645;4.649;4.652;4.655;4.659;4.662;4.666;4.669;4.673;4.676;4.680;4.684;4.687;4.691;4.695;4.699;4.702;4.706;4.710;4.714;4.718;4.722;4.725;4.729;4.733;4.737;4.741;4.746;4.750;4.754;4.758;4.762;4.766;4.771;4.775;4.779;4.784;4.788;4.792;4.796;4.801;4.805;4.810;4.814;4.818;4.823;4.827;4.832;4.836;4.841;4.845;4.850;4.855;4.859;4.864;4.869;4.874;4.879;4.883;4.888;4.893;4.898;4.903;4.908;4.913;4.919;4.924;4.929;4.935;4.940;4.946;4.951;4.956;4.962;4.967;4.972;4.978;4.983;4.988;4.994;4.999;5.004;5.010;5.016;5.022;5.028;5.034;5.040;5.046;5.052;5.058;5.064;5.070;5.076;5.083;5.089;5.095;5.101;5.107;5.113;5.119;5.125;5.131;5.137;5.143;5.149;5.155;5.161;5.166;5.172;5.178;5.184;5.191;5.196;5.202;5.208;5.214;5.220;5.226;5.232;5.238;5.244;5.250;5.256;5.262;5.268;5.274;5.281;5.287;5.293;5.299;5.306;5.313;5.319;5.326;5.333;5.340;5.346
5.347;5.340;5.332;5.325;5.318;5.311;5.305;5.298;5.292;5.286;5.280;5.273;5.266;5.259;5.252;5.245;5.238;5.232;5.226;5.220;5.215;5.210;5.205;5.199;5.193;5.187;5.182;5.176;5.170;5.164;5.159;5.153;5.147;5.141;5.135;5.129;5.123;5.117;5.110;5.104;5.098;5.092;5.086;5.080;5.075;5.068;5.063;5.057;5.051;5.046;5.040;5.034;5.029;5.023;5.017;5.012;5.007;5.001;4.996;4.991;4.985;4.980;4.975;4.969;4.964;4.958;4.953;4.948;4.942;4.937;4.932;4.927;4.921;4.916;4.911;4.906;4.901;4.896;4.892;4.887;4.882;4.878;4.873;4.869;4.864;4.859;4.855;4.850;4.845;4.840;4.835;4.830;4.825;4.820;4.815;4.810;4.806;4.801;4.796;4.792;4.788;4.783;4.778;4.774;4.770;4.765;4.761;4.756;4.752;4.747;4.743;4.739;4.734;4.730;4.726;4.722;4.718;4.714;4.710;4.706;4.703;4.700;4.696;4.692;4.688;4.684;4.681;4.677;4.674;4.671;4.667;4.664;4.660;4.657;4.653;4.649;4.646;4.642;4.639;4.635;4.632;4.628;4.624;4.621;4.618;4.614;4.611;4.608;4.605;4.601;4.598;4.595;4.592;4.589;4.586;4.583;4.580;4.577;4.574;4.570;4.567;4.564;4.561;4.558;4.555;4.552;4.549;4.546;4.543;4.540;4.537;4.534;4.531;4.528;4.525;4.523;4.520;4.518;4.515;4.513;4.510;4.508;4.506;4.503;4.501;4.499;4.497;4.495;4.493;4.490;4.488;4.487;4.485;4.483;4.482;4.480;4.478;4.477;4.475;4.474;4.472;4.471;4.469;4.467;4.465;4.463;4.461;4.459;4.457;4.455;4.454;4.453;4.452;2.845;2.826;2.809;2.794;2.784;2.776;2.770;2.765;2.762;2.760;2.758;2.755;2.752;2.750;2.750;2.751;2.753;2.755;2.757;2.756;2.755;2.757;2.761;2.770;2.773;2.758;2.751;2.746;2.742;2.738;2.737;2.737;2.738;2.739;2.740;2.742;2.744;2.746;2.748;2.751;2.753;2.756;2.759;2.762;2.766;2.772;2.778;2.786;2.795;2.803;2.813;4.434;4.434;4.434;4.435;4.435;4.436;4.437;4.437;4.438;4.440;4.441;4.441;4.442;4.443;4.443;4.444;4.445;4.446;4.447;4.447;4.448;4.449;4.450;4.451;4.452;4.453;4.455;4.457;4.459;4.460;4.461;4.463;4.464;4.465;4.466;4.467;4.468;4.470;4.472;4.474;4.476;4.478;4.480;4.482;4.484;4.487;4.489;4.491;4.493;4.495;4.498;4.500;4.501;4.504;4.506;4.508;4.510;4.513;4.515;4.517;4.520;4.522;4.524;4.527;4.529;4.531;4.534;4.536;4.538;4.541;4.543;4.546;4.548;4.551;4.553;4.556;4.559;4.562;4.565;4.568;4.571;4.574;4.577;4.580;4.583;4.586;4.589;4.592;4.595;4.598;4.602;4.605;4.608;4.611;4.614;4.617;4.621;4.624;4.627;4.631;4.634;4.638;4.641;4.645;4.649;4.652;4.656;4.659;4.663;4.667;4.671;4.674;4.678;4.682;4.686;4.690;4.694;4.697;4.701;4.705;4.709;4.713;4.717;4.721;4.726;4.730;4.734;4.738;4.742;4.746;4.751;4.755;4.759;4.764;4.768;4.772;4.777;4.781;4.785;4.790;4.794;4.799;4.803;4.807;4.812;4.817;4.821;4.826;4.830;4.835;4.840;4.845;4.849;4.854;4.859;4.864;4.869;4.874;4.879;4.884;4.889;4.894;4.899;4.905;4.910;4.915;4.921;4.926;4.931;4.937;4.942;4.947;4.952;4.958;4.963;4.968;4.974;4.979;4.985;4.991;4.997;5.002;5.008;5.014;5.020;5.026;5.032;5.039;5.045;5.051;5.057;5.063;5.069;5.076;5.082;5.088;5.094;5.100;5.106;5.112;5.118;5.124;5.130;5.136;5.141;5.147;5.153;5.159;5.166;5.172;5.178;5.183;5.189;5.195;5.200;5.206;5.212;5.218;5.224;5.230;5.237;5.243;5.249;5.255;5.261;5.267;5.274;5.280;5.287;5.294;5.300;5.307;5.314
5.315;5.308;5.301;5.295;5.288;5.282;5.275;5.269;5.262;5.256;5.249;5.242;5.235;5.229;5.222;5.215;5.210;5.204;5.199;5.194;5.187;5.181;5.175;5.169;5.163;5.157;5.151;5.146;5.140;5.134;5.128;5.122;5.116;5.110;5.104;5.098;5.092;5.086;5.080;5.074;5.068;5.062;5.056;5.050;5.044;5.038;5.032;5.027;5.021;5.015;5.010;5.004;4.999;4.993;4.988;4.983;4.977;4.972;4.967;4.962;4.956;4.951;4.945;4.940;4.935;4.929;4.924;4.919;4.914;4.909;4.904;4.899;4.894;4.889;4.883;4.878;4.873;4.869;4.864;4.859;4.855;4.850;4.846;4.841;4.836;4.831;4.826;4.821;4.816;4.811;4.806;4.801;4.796;4.792;4.787;4.782;4.778;4.773;4.769;4.764;4.760;4.755;4.751;4.746;4.742;4.738;4.733;4.729;4.724;4.720;4.716;4.711;4.707;4.703;4.698;4.694;4.690;4.687;4.683;4.679;4.675;4.672;4.668;4.664;4.661;4.657;4.654;4.650;4.647;4.643;4.639;4.636;4.632;4.629;4.625;4.622;4.618;4.615;4.611;4.607;4.604;4.601;4.597;4.594;4.590;4.587;4.584;4.580;4.577;4.574;4.571;4.568;4.565;4.562;4.559;4.556;4.553;4.549;4.546;4.543;4.540;4.537;4.534;4.531;4.528;4.525;4.522;4.519;4.516;4.513;4.510;4.507;4.505;4.502;4.499;4.497;4.494;4.492;4.489;4.487;4.485;4.482;4.480;4.478;4.475;4.473;4.471;4.468;4.466;4.464;4.461;4.460;4.458;4.456;4.454;4.453;4.451;4.450;4.448;4.447;4.445;4.444;4.442;4.440;4.438;4.436;4.435;4.433;4.431;4.429;4.428;4.427;4.425;4.424;2.832;2.816;2.799;2.788;2.780;2.774;2.769;2.765;2.764;2.763;2.761;2.758;2.755;2.753;2.754;2.756;2.758;2.760;2.762;2.764;2.767;2.769;2.774;2.790;2.767;2.760;2.754;2.749;2.745;2.742;2.742;2.742;2.743;2.745;2.746;2.748;2.750;2.753;2.755;2.757;2.760;2.763;2.767;2.771;2.776;2.782;2.790;2.800;2.809;2.819;4.408;4.408;4.408;4.408;4.408;4.409;4.410;4.411;4.412;4.413;4.414;4.415;4.415;4.416;4.417;4.417;4.418;4.419;4.419;4.420;4.421;4.422;4.423;4.424;4.425;4.427;4.428;4.430;4.432;4.433;4.435;4.436;4.437;4.438;4.439;4.441;4.442;4.444;4.446;4.448;4.450;4.452;4.454;4.456;4.458;4.460;4.462;4.465;4.467;4.469;4.470;4.472;4.474;4.476;4.479;4.481;4.483;4.486;4.488;4.490;4.493;4.495;4.498;4.500;4.502;4.504;4.507;4.509;4.511;4.514;4.516;4.519;4.521;4.524;4.526;4.529;4.532;4.534;4.537;4.540;4.543;4.546;4.549;4.552;4.555;4.559;4.561;4.565;4.568;4.571;4.574;4.577;4.580;4.583;4.586;4.590;4.593;4.596;4.599;4.603;4.607;4.610;4.614;4.618;4.621;4.625;4.628;4.632;4.636;4.639;4.643;4.647;4.651;4.655;4.658;4.662;4.666;4.670;4.674;4.678;4.682;4.686;4.690;4.694;4.698;4.702;4.706;4.710;4.714;4.719;4.723;4.727;4.731;4.736;4.740;4.744;4.748;4.753;4.757;4.761;4.766;4.770;4.775;4.779;4.784;4.788;4.793;4.797;4.802;4.806;4.811;4.816;4.820;4.825;4.830;4.835;4.840;4.845;4.850;4.854;4.859;4.864;4.869;4.874;4.880;4.885;4.890;4.896;4.901;4.907;4.912;4.917;4.922;4.928;4.933;4.938;4.944;4.949;4.955;4.961;4.967;4.972;4.978;4.984;4.990;4.995;5.001;5.007;5.013;5.020;5.026;5.032;5.038;5.044;5.050;5.056;5.063;5.069;5.075;5.081;5.088;5.094;5.099;5.105;5.111;5.117;5.122;5.128;5.134;5.141;5.147;5.153;5.159;5.165;5.170;5.176;5.182;5.188;5.193;5.200;5.206;5.212;5.218;5.224;5.231;5.237;5.243;5.250;5.256;5.262;5.269;5.276;5.283
5.285;5.278;5.272;5.265;5.258;5.252;5.245;5.238;5.232;5.226;5.219;5.212;5.206;5.199;5.194;5.189;5.182;5.176;5.169;5.163;5.156;5.150;5.145;5.139;5.133;5.127;5.122;5.116;5.110;5.104;5.098;5.092;5.086;5.080;5.074;5.068;5.062;5.056;5.050;5.044;5.038;5.032;5.026;5.020;5.014;5.008;5.002;4.996;4.991;4.985;4.980;4.975;4.970;4.964;4.959;4.954;4.949;4.943;4.938;4.933;4.927;4.922;4.917;4.912;4.906;4.901;4.896;4.891;4.886;4.881;4.876;4.871;4.866;4.861;4.856;4.851;4.846;4.841;4.837;4.832;4.828;4.823;4.818;4.813;4.808;4.803;4.798;4.793;4.788;4.783;4.778;4.773;4.769;4.764;4.759;4.755;4.750;4.745;4.741;4.736;4.732;4.728;4.723;4.719;4.715;4.710;4.706;4.702;4.697;4.693;4.689;4.684;4.680;4.676;4.671;4.667;4.664;4.660;4.656;4.652;4.648;4.645;4.641;4.637;4.634;4.630;4.626;4.623;4.619;4.616;4.612;4.608;4.605;4.602;4.598;4.594;4.591;4.587;4.584;4.580;4.577;4.573;4.570;4.566;4.563;4.560;4.557;4.554;4.551;4.548;4.545;4.542;4.539;4.535;4.532;4.528;4.525;4.522;4.519;4.515;4.512;4.509;4.506;4.503;4.500;4.497;4.495;4.492;4.490;4.487;4.484;4.482;4.479;4.476;4.474;4.471;4.469;4.466;4.464;4.461;4.459;4.456;4.454;4.452;4.449;4.447;4.445;4.442;4.440;4.438;4.435;4.433;4.431;4.429;4.428;4.426;4.424;4.423;4.422;4.420;4.419;4.417;4.415;4.414;4.412;4.410;4.409;4.407;4.405;4.403;4.402;4.400;4.399;4.398;2.838;2.822;2.804;2.792;2.783;2.778;2.773;2.769;2.767;2.766;2.766;2.764;2.761;2.758;2.757;2.758;2.759;2.762;2.764;2.767;2.770;2.775;2.780;2.796;2.779;2.768;2.762;2.756;2.752;2.749;2.747;2.747;2.748;2.749;2.751;2.753;2.755;2.757;2.760;2.762;2.765;2.768;2.771;2.775;2.780;2.785;2.793;2.803;2.814;2.824;4.382;4.382;4.382;4.382;4.382;4.382;4.383;4.384;4.385;4.386;4.387;4.388;4.389;4.390;4.390;4.391;4.392;4.393;4.393;4.394;4.395;4.396;4.397;4.398;4.399;4.400;4.401;4.403;4.404;4.406;4.408;4.409;4.411;4.412;4.413;4.414;4.416;4.418;4.420;4.422;4.424;4.426;4.428;4.430;4.432;4.434;4.436;4.438;4.440;4.442;4.444;4.446;4.448;4.450;4.452;4.454;4.456;4.459;4.461;4.463;4.466;4.468;4.471;4.473;4.475;4.478;4.480;4.482;4.485;4.487;4.489;4.492;4.494;4.497;4.499;4.502;4.505;4.507;4.510;4.513;4.516;4.519;4.522;4.525;4.528;4.531;4.534;4.537;4.540;4.543;4.546;4.549;4.553;4.556;4.559;4.562;4.565;4.569;4.572;4.575;4.579;4.583;4.587;4.590;4.594;4.597;4.601;4.605;4.608;4.612;4.616;4.620;4.623;4.627;4.631;4.635;4.639;4.643;4.646;4.650;4.654;4.658;4.662;4.666;4.670;4.674;4.678;4.682;4.686;4.690;4.695;4.699;4.703;4.708;4.712;4.717;4.721;4.725;4.730;4.734;4.738;4.743;4.747;4.751;4.756;4.760;4.764;4.769;4.773;4.778;4.783;4.787;4.792;4.797;4.802;4.806;4.811;4.816;4.821;4.826;4.831;4.836;4.841;4.846;4.851;4.856;4.861;4.866;4.871;4.877;4.882;4.887;4.893;4.898;4.903;4.908;4.914;4.920;4.925;4.931;4.937;4.943;4.949;4.954;4.960;4.966;4.971;4.977;4.983;4.989;4.995;5.001;5.007;5.013;5.019;5.025;5.032;5.038;5.044;5.050;5.057;5.063;5.069;5.075;5.081;5.086;5.092;5.098;5.104;5.110;5.116;5.123;5.129;5.135;5.141;5.147;5.152;5.158;5.164;5.170;5.176;5.182;5.188;5.195;5.201;5.207;5.213;5.220;5.226;5.232;5.238;5.245;5.252
5.255;5.248;5.242;5.235;5.228;5.221;5.214;5.209;5.203;5.196;5.190;5.184;5.178;5.171;5.165;5.158;5.152;5.145;5.139;5.132;5.127;5.121;5.115;5.109;5.103;5.097;5.091;5.085;5.080;5.074;5.068;5.062;5.056;5.050;5.044;5.038;5.032;5.026;5.020;5.014;5.009;5.002;4.996;4.990;4.984;4.978;4.972;4.967;4.962;4.957;4.952;4.948;4.942;4.937;4.931;4.925;4.920;4.915;4.910;4.904;4.899;4.894;4.889;4.884;4.879;4.874;4.869;4.864;4.859;4.854;4.849;4.844;4.839;4.834;4.829;4.824;4.819;4.815;4.810;4.805;4.800;4.795;4.790;4.785;4.780;4.775;4.770;4.765;4.760;4.755;4.751;4.746;4.741;4.737;4.732;4.727;4.723;4.718;4.714;4.709;4.705;4.701;4.696;4.692;4.687;4.683;4.678;4.674;4.670;4.666;4.662;4.658;4.654;4.649;4.645;4.641;4.637;4.633;4.629;4.626;4.622;4.618;4.614;4.610;4.607;4.603;4.599;4.596;4.592;4.588;4.585;4.581;4.578;4.575;4.571;4.567;4.564;4.560;4.557;4.553;4.550;4.547;4.544;4.541;4.537;4.534;4.531;4.528;4.525;4.522;4.518;4.515;4.511;4.508;4.504;4.501;4.498;4.495;4.491;4.488;4.485;4.482;4.480;4.477;4.474;4.472;4.469;4.466;4.464;4.461;4.458;4.456;4.453;4.451;4.448;4.446;4.443;4.440;4.438;4.435;4.433;4.431;4.428;4.426;4.423;4.421;4.419;4.416;4.414;4.412;4.409;4.407;4.405;4.403;4.401;4.400;4.398;4.397;4.395;4.394;4.393;4.391;4.389;4.388;4.386;4.384;4.383;4.381;4.379;4.377;4.376;4.375;4.373;4.372;2.844;2.828;2.809;2.796;2.787;2.781;2.777;2.773;2.771;2.769;2.769;2.768;2.767;2.765;2.763;2.761;2.762;2.763;2.765;2.768;2.770;2.777;2.786;2.812;2.795;2.777;2.770;2.764;2.758;2.754;2.753;2.752;2.753;2.754;2.755;2.757;2.759;2.761;2.764;2.767;2.769;2.773;2.776;2.780;2.784;2.789;2.796;2.801;2.819;2.830;4.356;4.356;4.356;4.356;4.357;4.357;4.357;4.358;4.359;4.360;4.360;4.361;4.362;4.364;4.365;4.365;4.366;4.367;4.367;4.368;4.369;4.370;4.371;4.372;4.373;4.374;4.375;4.377;4.378;4.379;4.381;4.382;4.384;4.385;4.387;4.388;4.390;4.392;4.394;4.396;4.398;4.400;4.402;4.404;4.406;4.408;4.410;4.412;4.414;4.415;4.417;4.419;4.421;4.423;4.425;4.428;4.430;4.432;4.435;4.437;4.439;4.442;4.444;4.446;4.449;4.451;4.454;4.456;4.458;4.460;4.463;4.465;4.468;4.470;4.473;4.476;4.478;4.481;4.484;4.486;4.489;4.492;4.495;4.498;4.501;4.504;4.507;4.510;4.513;4.516;4.519;4.522;4.525;4.529;4.532;4.535;4.538;4.541;4.545;4.548;4.551;4.555;4.559;4.563;4.567;4.571;4.574;4.578;4.581;4.585;4.589;4.593;4.596;4.600;4.604;4.608;4.611;4.615;4.619;4.623;4.627;4.630;4.634;4.638;4.642;4.646;4.650;4.654;4.658;4.663;4.667;4.671;4.676;4.680;4.685;4.689;4.693;4.698;4.702;4.707;4.711;4.716;4.720;4.725;4.729;4.733;4.738;4.742;4.747;4.751;4.755;4.760;4.764;4.769;4.773;4.778;4.783;4.788;4.792;4.797;4.802;4.807;4.812;4.817;4.822;4.827;4.832;4.837;4.842;4.847;4.852;4.858;4.863;4.868;4.874;4.879;4.885;4.890;4.896;4.902;4.908;4.913;4.919;4.925;4.931;4.936;4.942;4.948;4.953;4.959;4.965;4.971;4.977;4.983;4.989;4.995;5.001;5.007;5.013;5.020;5.026;5.032;5.039;5.044;5.050;5.056;5.062;5.068;5.074;5.079;5.085;5.092;5.098;5.105;5.111;5.117;5.123;5.129;5.134;5.140;5.147;5.153;5.159;5.165;5.171;5.177;5.184;5.190;5.196;5.202;5.209;5.215;5.221
